ncols         206
nrows         99
xllcorner     237027.652
yllcorner     572412
cellsize      25
NODATA_value  -9999
-9999 -9999 -9999 -9999 -9999 -9999 -9999 -9999 -9999 -9999 -9999 -9999 -9999 -9999 -9999 -9999 -9999 -9999 335 343 355 334 334 301 298 294 297 325 325 250 267 236 216 195 179 170 183 182 159 161 185 178 188 198 198 194 298 302 330 286 296 247 266 290 303 282 279 273 285 314 331 336 297 285 248 257 298 336 370 403 414 426 426 429 436 431 435 418 449 419 402 325 285 222 201 169 74 83 75 55 57 68 72 37 -7 14 18 -16 -33 -24 -21 -19 -18 -21 5 -39 -23 -49 -19 -23 -25 -14 -15 -31 -1 -6 -5 0 0 -11 -17 24 -4 -10 -14 -14 -15 -8 -5 0 -7 -4 -26 -14 -26 -23 -26 -21 -13 25 10 10 -4 -10 -13 -13 -19 -21 -12 -13 -6 5 1 4 -6 -8 5 27 -6 9 -3 -12 -7 -3 0 2 -10 -14 -24 -16 -25 -16 -14 -3 3 23 10 1 0 0 2 0 14 19 15 11 27 13 8 53 25 25 9 8 9 18 22 6 1 -5 5 7 -9999 -9999 -9999 -9999
-9999 -9999 -9999 -9999 -9999 -9999 -9999 -9999 -9999 -9999 -9999 -9999 -9999 -9999 -9999 -9999 -9999 -9999 -9999 365 375 325 343 310 315 311 289 330 333 293 265 241 224 228 190 165 151 176 179 182 193 236 178 178 180 184 115 302 330 288 290 280 231 243 287 305 316 331 306 313 349 342 325 278 256 278 317 344 370 395 401 398 408 417 424 436 434 446 475 420 423 404 322 275 194 173 116 81 83 51 67 6 73 62 39 9 33 -13 -20 -22 -30 10 -31 -27 -33 -29 -20 -24 -11 -17 -44 -19 -21 -20 -16 -18 -11 -10 33 0 -7 -10 -11 -7 0 7 0 -8 -3 -8 -17 -13 -20 -22 -10 -17 21 12 14 -3 -16 -20 -24 -17 -21 -21 -20 -21 -10 -12 -5 -8 -5 6 26 12 0 -8 -11 9 19 19 -3 -3 1 -46 -10 -20 -13 -23 -25 -18 -8 -3 -4 -39 9 17 5 8 5 10 27 12 10 13 16 -1 11 5 43 -2 -12 -18 -19 -27 -16 -20 -29 20 13 27 100 -9999 -9999 -9999
-9999 -9999 -9999 -9999 -9999 -9999 -9999 -9999 -9999 -9999 -9999 -9999 -9999 -9999 -9999 -9999 -9999 -9999 -9999 354 349 331 321 287 310 315 298 345 322 290 269 263 242 196 184 187 171 177 175 194 203 183 178 178 198 193 225 319 320 305 293 302 230 236 250 296 301 315 294 329 365 366 346 284 297 309 335 363 383 400 400 405 400 399 390 421 436 436 425 401 390 390 347 280 229 186 125 76 79 62 54 54 62 68 70 28 19 20 30 -24 -36 -27 -17 -22 -20 -18 -15 -35 -17 -15 -20 -23 -32 1 -1 23 3 5 -26 -11 -7 -3 5 0 7 3 -20 -14 -21 -18 -15 -11 -1 23 27 8 3 -9 -15 -15 -24 -20 -23 -19 -17 -16 -17 -10 -7 -20 5 -15 -7 -24 -8 -16 -19 -9 9 8 13 9 9 102 104 -43 -1 -18 -10 -17 -22 -2 19 14 13 22 31 32 24 28 22 17 23 14 6 10 -2 2 1 -2 31 -5 -43 -38 -26 -25 -35 -10 -12 10 7 10 40 -9999 -9999 -9999
-9999 -9999 -9999 -9999 -9999 -9999 -9999 -9999 -9999 -9999 -9999 -9999 -9999 -9999 -9999 -9999 -9999 -9999 -9999 -9999 317 327 326 341 304 307 290 339 338 298 267 253 248 189 170 180 138 189 187 217 184 204 186 167 207 159 236 199 335 341 297 311 258 214 242 275 297 316 315 329 352 377 380 346 311 316 342 365 383 403 394 419 386 397 395 420 432 426 431 407 392 377 339 285 243 205 176 68 83 67 56 74 63 45 69 58 41 50 3 3 -36 1 -28 12 -27 -10 -13 -13 -11 -21 -13 -19 -13 -7 -22 -26 -15 -9 10 16 -5 -12 -10 -19 -17 -20 -27 -23 -22 6 1 18 -8 -13 -16 -29 -35 -33 -22 -7 -17 -22 -20 -19 -13 -15 0 -5 0 -2 0 0 -8 0 4 3 11 12 20 114 91 97 109 -9999 118 -45 1 -10 -12 -14 -20 -15 -4 37 22 38 33 25 23 24 18 18 22 16 12 9 -7 6 -1 -1 16 -16 -22 12 -15 -19 -19 1 -9 -7 -5 -1 7 -9999 -9999 -9999
-9999 -9999 -9999 -9999 -9999 -9999 -9999 -9999 -9999 -9999 -9999 -9999 -9999 -9999 -9999 -9999 -9999 -9999 -9999 -9999 -9999 313 323 317 310 298 303 347 340 323 299 245 199 186 193 200 181 183 173 173 167 198 207 217 232 195 310 100 357 352 312 304 306 215 252 296 330 305 317 331 359 382 375 354 302 325 337 359 374 388 394 402 370 393 403 417 410 441 440 429 411 397 374 303 263 218 170 113 97 87 79 60 64 24 56 52 41 46 49 -35 -41 -24 -15 -16 -19 -28 -18 -18 -14 10 -37 -25 -21 3 -6 5 -31 -10 -15 -11 -18 -22 -25 -17 -6 -19 -1 15 24 5 -7 -10 -20 -17 -27 -37 -28 -26 -18 -10 -7 -16 -5 5 -15 -8 -13 -9 -8 -19 -10 -19 11 -24 -14 -10 8 62 49 63 -9999 -9999 1 -9999 138 6 -3 -5 -1 -14 -18 -10 -5 2 10 29 30 9 12 16 17 24 7 13 12 2 -6 19 17 42 4 39 17 -14 -7 -50 -25 -24 -30 -21 -22 -7 8 -9999 -9999 -9999
-9999 -9999 -9999 -9999 -9999 -9999 -9999 -9999 -9999 -9999 -9999 -9999 -9999 -9999 -9999 -9999 -9999 -9999 -9999 -9999 -9999 315 317 304 303 316 338 366 369 316 281 302 226 208 212 179 215 212 208 171 159 146 191 203 213 159 215 221 327 341 313 310 327 254 264 301 316 316 326 342 367 395 369 322 302 284 335 345 374 375 380 386 419 379 398 414 435 429 440 424 400 406 404 338 301 256 192 127 83 89 77 75 50 41 47 50 41 26 40 -21 -29 -26 -28 -23 -9 -11 20 -5 -12 -15 -29 -17 -14 -24 -25 -1 -10 -5 -12 4 -11 -28 -28 14 14 16 -12 -7 -14 -4 -7 -23 -24 -25 -16 -17 -21 -17 -10 10 5 -2 -7 -9 -9 -9 -10 -11 -10 7 -7 9 13 -2 -1 0 14 30 11 -9999 -9999 -9999 0 7 131 0 -1 -13 -14 -14 -18 -16 -13 0 -1 2 17 6 6 8 13 12 23 9 -18 17 7 5 18 8 17 29 2 -1 1 -40 -11 -13 3 -7 -5 5 9 126 -9999 -9999
-9999 -9999 -9999 -9999 -9999 -9999 -9999 -9999 -9999 -9999 -9999 -9999 -9999 -9999 -9999 -9999 -9999 -9999 -9999 -9999 -9999 -9999 282 299 310 308 298 313 319 307 352 264 206 218 230 204 198 224 229 160 172 172 232 214 195 188 206 218 173 327 311 305 318 276 243 279 295 321 324 317 352 376 367 317 285 240 272 315 335 346 381 385 391 395 408 418 422 429 469 422 400 383 384 359 288 250 196 165 122 86 73 66 53 48 53 55 41 11 25 29 -33 -28 -28 1 -27 -22 -21 -23 -15 -8 -21 -23 -27 -32 -15 -16 -9 -26 -24 -4 18 3 4 -14 -13 -15 -13 -16 -20 -15 0 -20 -18 -8 -6 12 27 19 -11 -9 -13 -7 -4 -25 -1 15 0 -2 1 -10 2 -10 -4 -19 -11 -19 -3 -3 19 14 47 97 121 91 9 15 4 -10 -16 -19 -20 -17 -9 -4 -1 -10 5 9 12 36 35 7 23 27 24 11 20 0 3 36 27 6 -9 12 -1 -19 -4 0 -9 -5 3 14 16 119 -9999 -9999
-9999 -9999 -9999 -9999 -9999 -9999 -9999 -9999 -9999 -9999 -9999 -9999 -9999 -9999 -9999 -9999 -9999 -9999 -9999 -9999 -9999 -9999 311 276 295 318 358 329 367 378 296 223 205 196 203 211 209 238 225 180 169 179 194 169 171 173 204 250 206 324 315 290 310 315 221 259 298 327 318 320 341 367 355 329 266 279 296 279 346 363 367 380 416 396 396 404 432 407 401 407 394 391 383 378 328 256 217 171 142 81 76 69 37 57 57 51 51 48 43 56 -19 -21 -13 -27 -28 -21 -11 -15 -16 -20 -20 -24 -28 -27 -5 -1 6 -23 33 6 -14 -18 -18 -15 -16 -17 -17 -17 -18 -18 0 -8 12 7 2 -4 -12 -8 -22 -6 -6 16 5 2 -1 1 22 17 12 19 17 15 9 -12 -21 -19 -21 0 126 82 12 25 21 15 0 -18 9 -7 -3 -5 -7 -1 -5 -13 7 -3 13 4 1 0 5 10 40 24 19 18 27 45 33 39 16 1 7 38 30 10 0 39 11 -4 25 27 18 21 -9999 -9999
-9999 -9999 -9999 -9999 -9999 -9999 -9999 -9999 -9999 -9999 -9999 -9999 -9999 -9999 -9999 -9999 -9999 -9999 -9999 -9999 -9999 -9999 -9999 280 308 315 345 307 375 341 335 238 221 208 236 215 227 224 200 180 179 174 162 179 177 208 198 218 248 325 326 300 321 323 257 265 293 321 317 337 347 372 393 360 302 320 310 386 407 311 396 407 407 408 399 416 398 399 408 387 389 374 381 355 348 287 237 187 144 78 75 85 81 57 47 62 52 60 16 76 33 -16 -23 7 -20 -16 -25 -27 -26 -27 -28 -25 -23 -4 -7 21 17 -10 0 3 23 -14 -18 -16 -15 -11 -15 -10 3 -4 4 -3 -1 5 2 0 7 17 11 16 -9 -5 -1 -2 0 -4 31 29 26 26 21 18 0 -13 -15 -7 -4 19 14 10 -7 19 8 45 47 40 2 -1 16 4 4 2 1 8 5 0 -1 -3 -4 3 7 8 35 26 15 -5 9 14 15 23 1 0 6 52 15 -7 -6 -6 -1 15 10 6 6 18 151 -9999
-9999 -9999 -9999 -9999 -9999 -9999 -9999 -9999 -9999 -9999 -9999 -9999 -9999 -9999 -9999 -9999 -9999 -9999 -9999 -9999 -9999 -9999 -9999 -9999 264 304 339 332 335 337 334 255 242 224 221 218 145 195 189 190 176 166 168 160 208 219 220 236 263 267 316 304 328 338 310 260 266 287 308 329 351 384 423 428 293 316 396 424 419 403 350 397 396 419 407 407 396 403 406 403 391 384 386 391 390 316 261 215 176 151 127 114 67 66 82 68 55 72 98 93 73 -1 -28 -31 -23 -28 -27 -25 -23 -13 7 -10 0 -23 -7 -9 -7 -19 -21 -23 -8 -8 -10 -11 3 0 0 2 -5 -7 -7 -9 -12 -3 -1 -9 -4 -17 -9 -11 -8 -2 -7 -14 -9 -7 26 38 28 20 3 0 5 0 16 11 18 36 45 72 95 75 62 51 43 30 -2 3 5 -5 -11 -5 5 5 -2 -3 -2 0 -2 0 7 19 24 18 20 16 23 27 36 25 18 9 12 -12 -10 -12 -14 -12 -10 2 -4 -7 4 5 91 -9999
-9999 -9999 -9999 -9999 -9999 -9999 -9999 -9999 -9999 -9999 -9999 -9999 -9999 -9999 -9999 -9999 -9999 -9999 -9999 -9999 -9999 -9999 -9999 -9999 296 316 313 305 331 351 344 299 303 281 188 209 193 193 181 181 177 161 163 187 199 232 238 255 257 263 311 299 309 335 305 256 277 257 273 321 341 362 417 299 284 404 410 450 443 391 382 367 398 420 401 421 425 412 409 384 380 390 384 386 357 338 286 233 194 161 149 113 93 62 56 60 81 111 44 76 75 -10 -29 -29 -18 -16 -16 27 -9 8 -16 -23 -20 -28 2 -3 -9 -10 -5 -1 -9 14 -19 1 -9 -7 -8 -13 -10 -1 18 -10 3 -3 -9 -6 -14 -28 -18 -18 -21 -10 -19 -22 -15 -5 4 25 1 6 51 85 29 102 64 52 20 73 41 54 56 94 98 23 18 29 22 3 -7 -12 -13 -10 -14 -7 -9 -2 0 0 0 5 10 12 23 26 23 19 26 15 14 10 28 1 -3 -22 -14 -10 -14 -9 -11 -12 5 -1 -1 8 3 -9999
-9999 -9999 -9999 -9999 -9999 -9999 -9999 -9999 -9999 -9999 -9999 -9999 -9999 -9999 -9999 -9999 -9999 -9999 -9999 -9999 -9999 -9999 -9999 -9999 -9999 257 289 303 336 336 332 284 273 301 195 203 178 185 190 208 177 147 139 208 222 191 257 298 235 270 308 313 300 335 308 175 261 261 262 279 332 362 393 285 335 393 404 428 462 418 406 391 415 414 435 410 410 416 410 411 404 380 372 368 352 340 326 265 212 179 163 133 88 73 86 51 55 73 84 73 95 -8 -20 4 -12 12 -18 -15 -25 -20 -23 -25 -24 -25 -2 -9 -9 -1 6 6 4 2 -10 -10 -3 0 33 7 3 0 -12 -11 -13 -6 -10 0 -17 -21 -17 -26 -18 -20 -8 5 0 0 -22 52 33 54 492 483 55 107 89 29 12 42 8 44 29 77 70 54 23 58 -1 36 -12 -23 -21 -15 6 15 7 18 17 9 7 12 18 31 28 10 10 17 27 25 21 18 21 18 -8 -12 -17 -27 -19 -17 -17 -11 10 20 15 29 30 -9999
-9999 -9999 -9999 -9999 -9999 -9999 -9999 -9999 -9999 -9999 -9999 -9999 -9999 -9999 -9999 -9999 -9999 -9999 -9999 -9999 -9999 -9999 -9999 -9999 -9999 272 270 278 307 309 319 289 258 268 197 179 221 212 225 220 191 203 184 210 236 218 253 244 227 280 308 306 304 323 322 279 259 257 262 288 329 357 269 291 380 376 353 399 455 456 471 453 448 462 415 390 398 404 399 405 404 401 388 383 358 350 329 294 198 184 166 139 99 85 56 51 53 60 62 85 87 31 18 -15 -14 -9 -14 -19 -38 -33 -28 -24 -24 -22 7 -13 -17 -19 -8 -10 -4 1 21 -2 6 0 -18 -12 -13 -12 -15 -20 -20 -17 -18 -3 -9 -6 -5 3 0 0 0 -6 -4 0 13 16 13 27 21 28 -13 -8 33 13 8 19 5 27 42 7 -8 -13 -2 1 1 0 43 -7 0 -33 -40 -14 4 13 11 9 15 19 -1 21 17 11 11 -12 9 -2 14 20 14 17 -1 -17 -26 -20 -9 -16 -21 -8 16 4 1 15 30 -9999
-9999 -9999 -9999 -9999 -9999 -9999 -9999 -9999 -9999 -9999 -9999 -9999 -9999 -9999 -9999 -9999 -9999 -9999 -9999 -9999 -9999 -9999 -9999 -9999 -9999 -9999 253 285 304 287 382 269 299 259 241 233 233 245 198 216 234 211 192 190 209 213 235 259 227 220 314 313 302 343 332 314 278 253 265 274 309 278 260 332 358 271 279 333 435 493 513 508 468 490 471 417 425 432 415 410 396 396 398 385 398 372 348 300 240 204 188 164 93 88 62 58 49 79 50 37 58 56 -2 -23 -29 -36 -21 -31 -31 -25 -5 0 -9 -16 -6 -9 3 -9 -11 6 -2 -8 -7 -5 -4 -8 -13 -13 -11 -17 -12 -12 -10 -13 -7 27 0 2 2 0 1 3 -2 -4 -7 0 8 32 16 19 -4 41 43 14 14 27 30 49 -6 -8 -7 -9 -7 -8 -9 -6 2 -1 20 2 10 0 3 7 12 3 4 2 0 6 12 46 15 15 14 22 25 22 24 34 11 -2 -10 -11 -10 -9 -2 -10 -5 -3 12 -1 5 21 23 -9999
-9999 -9999 -9999 -9999 -9999 -9999 -9999 -9999 -9999 -9999 -9999 -9999 -9999 -9999 -9999 -9999 -9999 -9999 -9999 -9999 -9999 -9999 -9999 -9999 -9999 -9999 285 311 327 325 331 300 301 256 216 245 256 225 218 230 201 192 209 180 250 207 274 241 218 229 245 316 326 334 331 243 263 261 272 269 306 298 307 363 353 289 292 286 423 493 526 531 513 491 510 511 461 454 431 422 403 395 390 387 374 354 335 312 256 221 213 198 126 137 91 89 58 43 36 40 34 34 24 -34 -22 -27 -12 4 -10 -19 -21 -21 -18 -30 -9 -4 2 3 2 -2 -1 -10 -4 0 4 -14 -19 -15 -9 -13 11 39 15 6 -11 -9 -13 -11 0 -9 -12 12 10 -3 1 -7 2 1 -12 -9 -4 66 33 10 19 -14 -13 -18 -24 -18 -14 -13 -6 -6 0 -5 -7 -20 7 35 -4 11 3 3 3 2 19 12 22 21 16 62 20 17 29 29 1 -1 2 20 0 -15 -8 -19 -11 16 0 0 -3 2 8 2 12 17 -9999 -9999
-9999 -9999 -9999 -9999 -9999 -9999 -9999 -9999 -9999 -9999 -9999 -9999 -9999 -9999 -9999 -9999 -9999 -9999 -9999 -9999 -9999 -9999 -9999 -9999 -9999 -9999 -9999 285 294 341 321 302 300 244 226 224 196 210 249 225 178 141 151 156 195 231 225 243 311 344 236 312 307 330 330 158 246 283 300 309 329 288 271 345 345 292 281 311 427 460 478 479 485 513 579 564 531 488 464 393 401 438 398 387 381 368 351 310 299 243 222 189 157 130 119 95 73 62 24 27 34 26 33 1 -30 -22 -27 -24 -16 -7 -4 17 2 -10 -6 -9 -8 -2 7 -1 -3 -5 0 0 8 7 18 41 4 -10 -32 -40 -33 -11 -29 -14 -6 0 12 5 23 2 0 3 -3 -1 10 51 43 -12 5 3 0 -4 -11 -14 -5 5 -22 -16 -11 -34 -19 -20 -5 -4 -2 -4 4 17 4 11 8 6 8 6 0 3 0 8 12 37 12 12 13 19 9 9 20 2 21 4 -3 -4 7 -4 0 0 17 8 12 16 61 -9999 -9999 -9999
-9999 -9999 -9999 -9999 -9999 -9999 -9999 -9999 -9999 -9999 -9999 -9999 -9999 -9999 -9999 -9999 -9999 -9999 -9999 -9999 -9999 -9999 -9999 -9999 -9999 -9999 -9999 -9999 281 321 322 306 293 245 238 231 221 180 194 174 156 150 163 188 205 183 248 238 230 248 262 314 320 337 324 147 204 250 314 267 257 265 272 271 337 320 336 347 415 404 419 444 492 534 550 575 567 548 403 394 362 411 397 383 389 367 352 335 295 271 248 222 206 130 93 73 42 38 33 25 30 45 48 57 -7 -20 -11 18 -18 -23 -12 -18 -18 -23 -3 -6 -12 -12 -9 -5 -2 -8 3 41 -1 10 -4 -13 -9 0 -19 -24 -3 -7 -26 13 4 2 -13 -15 -15 9 51 38 -50 -1 -7 -3 -37 -29 -37 -31 -13 -17 -11 21 7 -10 -21 -18 -14 -5 -8 -10 -10 -5 -5 0 -1 15 -3 11 14 28 9 11 8 4 4 4 49 27 24 15 21 24 20 24 39 11 -7 -6 -10 19 5 -13 -9 34 7 10 18 119 -9999 -9999 -9999 -9999
-9999 -9999 -9999 -9999 -9999 -9999 -9999 -9999 -9999 -9999 -9999 -9999 -9999 -9999 -9999 -9999 -9999 -9999 -9999 -9999 -9999 -9999 -9999 -9999 -9999 -9999 -9999 -9999 291 316 290 299 274 209 278 262 242 214 207 175 155 152 217 238 214 209 233 227 236 243 259 321 311 339 327 158 210 326 344 309 303 257 253 263 250 316 311 295 316 359 405 463 489 511 536 555 576 393 390 398 388 421 409 392 384 375 366 353 316 299 251 207 171 126 78 61 41 45 57 67 68 69 41 57 45 -7 -22 -25 -28 -22 -9 -11 -10 -31 0 10 5 -2 22 -1 0 -4 -5 -2 3 21 2 -6 -6 7 -39 3 -1 -9 -16 -7 -11 25 64 -30 -15 -15 -17 -14 -9 -17 -8 -6 -4 9 27 11 18 -3 3 -37 11 -28 -27 -27 -17 -37 -4 -5 -12 -14 0 4 0 18 3 -7 0 6 10 19 19 27 20 18 48 29 37 -20 45 31 31 26 29 3 -9 -12 4 -1 0 0 19 2 0 125 -9999 -9999 -9999 -9999 -9999 -9999
-9999 -9999 -9999 -9999 -9999 -9999 -9999 -9999 -9999 -9999 -9999 -9999 -9999 -9999 -9999 -9999 -9999 -9999 -9999 -9999 -9999 -9999 -9999 -9999 -9999 -9999 -9999 -9999 -9999 282 292 294 294 255 230 224 205 191 131 164 149 191 215 228 211 207 204 207 193 192 216 300 295 318 317 178 336 370 312 300 288 247 259 258 264 321 279 281 318 378 445 451 480 509 514 541 387 381 390 391 398 402 418 400 388 371 356 363 348 265 249 200 171 111 116 109 97 67 47 62 57 99 78 65 73 -1 -20 -16 -12 -15 -15 -15 -14 -10 14 5 -13 -15 -16 -16 2 -8 -5 3 5 0 -34 12 -9 -14 -18 -23 -3 24 -6 37 0 -11 -13 -16 -20 -25 -22 -16 -6 -2 -1 -5 0 -12 4 -5 -16 1 -20 -26 -20 -17 -18 -24 -16 -9 -7 -5 -8 -5 -2 3 7 10 19 27 8 2 3 8 6 3 13 21 45 33 21 26 30 31 40 37 15 27 -8 -10 -2 -3 -3 6 8 46 -9999 -9999 -9999 -9999 -9999 -9999 -9999 -9999
-9999 -9999 -9999 -9999 -9999 -9999 -9999 -9999 -9999 -9999 -9999 -9999 -9999 -9999 -9999 -9999 -9999 -9999 -9999 -9999 -9999 -9999 -9999 -9999 -9999 -9999 -9999 -9999 -9999 312 311 258 254 214 203 171 203 190 183 179 177 198 160 216 220 224 337 194 181 201 179 282 292 313 296 340 348 375 351 296 295 328 373 389 352 339 282 323 365 411 420 443 450 473 504 389 382 392 385 393 391 406 394 415 377 389 377 371 350 314 282 223 198 167 105 103 98 83 97 60 67 102 112 17 25 55 -6 -23 -23 -4 26 -9 -15 -15 3 9 19 -4 7 2 -5 -5 1 0 10 1 4 28 61 44 -2 -28 -40 -38 -35 -32 -26 -31 -26 -1 -18 -9 -10 -1 -1 -8 -7 -11 -10 -12 -24 -13 -1 2 -11 -28 -5 11 -28 -18 -20 -11 -9 -7 -5 -8 0 5 -6 7 1 3 22 19 18 11 8 7 7 23 29 22 23 31 31 23 26 20 12 3 -3 2 11 11 -20 3 42 -9999 -9999 -9999 -9999 -9999 -9999 -9999 -9999 -9999
-9999 -9999 -9999 -9999 -9999 -9999 -9999 -9999 -9999 -9999 -9999 -9999 -9999 -9999 -9999 -9999 -9999 -9999 -9999 -9999 -9999 -9999 -9999 -9999 -9999 -9999 -9999 -9999 -9999 300 316 302 224 222 207 196 189 200 191 189 201 201 202 224 241 230 244 232 245 221 218 300 300 295 310 356 385 415 375 356 378 375 386 360 334 321 318 293 308 331 372 381 421 468 455 392 383 376 395 380 391 389 392 390 416 409 393 374 381 335 289 255 222 199 142 144 131 97 64 56 53 71 58 48 30 36 16 -10 -18 -18 -23 -13 1 -19 5 11 -20 17 5 -2 2 -5 -5 55 67 7 1 12 24 -12 -14 -21 -14 -20 -13 -8 -9 -5 -14 -18 -22 -14 -10 -5 -4 -2 1 10 -3 10 -4 14 3 -1 -18 -21 -12 -14 -10 -19 -19 -9 -5 -10 -3 -4 0 3 15 -3 -5 -8 11 14 18 5 6 3 17 46 16 8 19 23 27 27 37 19 19 -14 -11 -1 -2 -3 -3 -5 -9999 -9999 -9999 -9999 -9999 -9999 -9999 -9999 -9999 -9999
-9999 -9999 -9999 -9999 -9999 -9999 -9999 -9999 -9999 -9999 -9999 -9999 -9999 -9999 -9999 -9999 -9999 -9999 -9999 -9999 -9999 -9999 -9999 -9999 -9999 -9999 -9999 -9999 -9999 -9999 309 316 309 217 206 197 196 199 196 205 218 213 221 234 234 228 236 267 259 237 229 300 302 311 304 352 385 390 393 336 243 238 358 337 333 339 298 273 281 282 283 342 414 459 469 430 407 393 377 401 392 393 386 526 498 420 421 398 379 367 336 286 244 213 194 129 103 92 73 73 87 70 73 36 18 -12 5 7 -10 -17 -20 -17 -18 -19 -17 -8 3 -1 -17 51 -20 -7 -1 -2 -9 -3 -1 -2 5 16 5 -8 -22 -22 -18 -16 -21 -16 -10 -8 -15 -8 -4 -15 -5 -10 5 -3 -1 -7 -6 3 -7 6 -10 -6 -27 -27 -18 -31 -14 -3 1 -3 -9 -1 5 3 23 3 -1 9 -2 4 7 10 11 7 10 50 13 15 13 14 17 27 38 18 -5 0 0 -7 -7 -5 8 139 -9999 -9999 -9999 -9999 -9999 -9999 -9999 -9999 -9999 -9999
-9999 -9999 -9999 -9999 -9999 -9999 -9999 -9999 -9999 -9999 -9999 -9999 -9999 -9999 -9999 -9999 -9999 -9999 -9999 -9999 -9999 -9999 -9999 -9999 -9999 -9999 -9999 -9999 -9999 -9999 319 314 231 218 217 204 201 182 201 203 212 218 216 225 237 230 253 250 267 249 230 297 311 317 324 343 377 390 384 372 236 227 237 367 371 330 282 261 237 243 257 277 309 434 488 450 422 357 382 417 395 490 561 527 526 503 434 415 390 363 361 341 331 305 277 121 97 96 65 41 27 32 29 12 14 -4 -11 -25 -35 -10 -19 -17 -18 -9 33 7 -6 -5 -9 -9 -13 -9 -9 -2 11 1 3 0 4 29 -5 -10 -17 -5 -15 -4 11 -11 -3 -6 -17 -13 -6 -11 -14 -11 -15 0 5 -16 -28 -22 -22 -24 -18 -4 -12 23 -42 9 -11 -11 -8 -9 -9 -1 -4 -1 19 0 14 22 19 8 7 10 13 18 21 56 21 18 6 8 15 22 30 0 -8 5 8 -5 -2 -1 -1 -9999 -9999 -9999 -9999 -9999 -9999 -9999 -9999 -9999 -9999 -9999
-9999 -9999 -9999 -9999 -9999 -9999 -9999 -9999 -9999 -9999 -9999 -9999 -9999 -9999 -9999 -9999 -9999 -9999 -9999 -9999 -9999 -9999 -9999 -9999 -9999 -9999 -9999 -9999 -9999 -9999 -9999 281 243 232 238 238 205 198 197 207 228 246 153 224 221 238 255 237 291 216 236 298 304 314 310 344 359 278 263 315 224 219 232 237 240 289 263 214 211 221 222 254 295 341 460 453 430 440 403 395 528 540 561 564 553 530 511 480 452 447 411 361 335 303 249 182 157 71 57 51 40 38 22 10 39 31 -21 -15 -17 13 57 -21 -33 -29 -11 -3 -9 -11 -10 0 -3 1 -2 -7 -2 -4 -6 -1 8 14 26 -30 5 -6 -9 -2 0 0 -14 -15 -19 -7 -18 -15 -13 -10 -23 -2 -7 -9 0 -9 -32 -10 -7 -8 -26 -25 -16 -10 -21 -17 -12 -9 -7 0 -1 -7 15 10 20 14 27 46 28 31 22 17 25 63 37 -14 8 16 22 33 33 0 -1 4 3 -10 1 -10 3 -9999 -9999 -9999 -9999 -9999 -9999 -9999 -9999 -9999 -9999 -9999
-9999 -9999 -9999 -9999 -9999 -9999 -9999 -9999 -9999 -9999 -9999 -9999 -9999 -9999 -9999 -9999 -9999 -9999 -9999 -9999 -9999 -9999 -9999 -9999 -9999 -9999 -9999 -9999 -9999 -9999 -9999 -9999 260 248 237 254 240 205 205 224 260 249 242 239 227 244 243 253 319 327 219 282 296 305 320 347 271 214 231 242 225 222 222 229 233 281 233 189 190 206 212 229 275 312 441 492 448 440 424 504 526 531 553 564 559 567 560 537 507 496 431 394 329 294 249 218 170 89 85 39 44 36 33 39 69 123 37 0 -16 -21 -23 -28 -32 -19 -15 16 13 8 -3 -10 -12 -10 -17 -7 1 5 0 -20 -2 3 3 -9 -18 -20 -22 -23 -13 -15 -17 -10 -12 -8 -5 0 7 0 1 -2 -4 -1 -22 -16 -15 -16 -23 -12 11 -15 -10 -15 -14 -11 -12 -9 -3 0 9 12 10 8 0 5 7 10 22 31 21 25 51 32 15 14 17 17 23 37 49 -18 10 -3 -10 -13 0 6 56 -9999 -9999 -9999 -9999 -9999 -9999 -9999 -9999 -9999 -9999 -9999
-9999 -9999 -9999 -9999 -9999 -9999 -9999 -9999 -9999 -9999 -9999 -9999 -9999 -9999 -9999 -9999 -9999 -9999 -9999 -9999 -9999 -9999 -9999 -9999 -9999 -9999 -9999 -9999 -9999 -9999 -9999 -9999 297 254 252 233 208 199 224 258 260 266 260 260 240 252 244 226 268 368 253 295 303 301 321 335 249 211 222 241 249 229 243 225 229 272 230 203 202 193 203 211 257 303 383 478 488 460 483 490 509 519 521 546 541 553 566 556 560 491 458 425 353 324 281 242 204 196 173 136 147 196 104 108 79 52 20 -3 -15 -9 -6 -5 -27 -34 -27 -25 -15 -24 -18 1 13 -18 -14 -2 -6 -6 -7 -7 -7 -5 -2 13 -14 -10 -7 -15 -13 5 4 4 -6 -4 -2 -10 -6 -11 -4 -4 -5 1 -28 -20 -30 -34 -34 -32 -16 1 -23 8 -13 -10 -3 -5 1 6 11 5 10 5 8 3 4 12 6 15 26 19 56 13 5 12 15 18 30 0 -3 -5 -2 9 2 3 5 3 66 -9999 -9999 -9999 -9999 -9999 -9999 -9999 -9999 -9999 -9999 -9999
-9999 -9999 -9999 -9999 -9999 -9999 -9999 -9999 -9999 -9999 -9999 -9999 -9999 -9999 -9999 -9999 -9999 -9999 -9999 -9999 -9999 -9999 -9999 -9999 -9999 -9999 -9999 -9999 -9999 -9999 -9999 -9999 -9999 285 271 254 233 181 231 251 272 283 277 294 316 283 285 272 228 288 303 295 299 303 334 306 234 218 221 256 238 242 240 259 254 280 233 201 213 196 191 192 244 302 350 457 481 476 483 473 480 495 508 509 514 521 548 551 513 501 449 387 381 343 313 265 286 270 213 215 161 138 119 106 68 53 -10 13 -4 -23 -21 -30 -37 -29 -9 -38 -10 -11 -16 -19 -31 -40 -6 -5 -4 -12 -11 -13 -8 1 4 19 33 -17 2 2 0 0 -12 -9 -15 -7 -16 -12 -12 -11 -7 -8 -2 2 7 11 11 7 -17 -19 -23 -18 -22 -22 -12 -13 -11 -5 -2 1 7 50 13 10 13 5 14 19 23 13 17 14 41 18 20 13 12 11 31 45 30 13 -10 17 14 12 14 18 35 -9999 -9999 -9999 -9999 -9999 -9999 -9999 -9999 -9999 -9999 -9999
-9999 -9999 -9999 -9999 -9999 -9999 -9999 -9999 -9999 -9999 -9999 -9999 -9999 -9999 -9999 -9999 -9999 -9999 -9999 -9999 -9999 -9999 -9999 -9999 -9999 -9999 -9999 -9999 -9999 -9999 -9999 -9999 -9999 -9999 282 274 259 288 205 269 275 245 295 291 310 287 234 262 265 323 277 276 312 313 299 310 246 215 211 253 248 251 250 275 246 286 251 216 213 197 188 196 240 301 335 421 466 490 470 446 430 451 487 503 505 503 517 535 438 434 423 397 383 411 390 302 281 260 221 233 211 100 100 81 60 32 25 16 16 -14 -25 -24 -26 -3 -6 -12 -10 -13 -8 -12 -16 -31 -6 -5 5 21 -10 -11 -10 0 -5 -3 -31 -19 -23 -29 -23 -18 -21 -14 -12 -14 -18 -10 -5 -3 10 -3 2 12 6 -36 -16 -16 -4 -2 15 16 20 -20 -15 -11 -15 -5 -3 0 -6 20 25 30 23 21 15 25 28 22 37 41 46 24 21 30 25 29 39 58 18 14 14 51 23 52 29 33 51 -9999 -9999 -9999 -9999 -9999 -9999 -9999 -9999 -9999 -9999 -9999
-9999 -9999 -9999 -9999 -9999 -9999 -9999 -9999 -9999 -9999 -9999 -9999 -9999 -9999 -9999 -9999 -9999 -9999 -9999 -9999 -9999 -9999 -9999 -9999 -9999 -9999 -9999 -9999 -9999 -9999 -9999 -9999 -9999 -9999 -9999 320 293 324 335 232 187 260 272 305 315 328 320 285 277 430 247 234 325 323 229 278 223 225 217 214 238 245 258 268 270 252 263 214 202 207 201 205 246 288 333 372 440 472 490 413 406 410 433 451 473 411 412 406 416 427 424 421 430 386 359 309 309 278 249 234 210 145 97 77 70 52 6 5 -10 -5 -10 -3 -13 -25 -15 -9 -11 -14 1 11 -30 -19 -14 -1 0 -6 -8 -7 -7 -13 -8 -10 13 -1 -25 -21 -18 -4 -6 11 -14 4 -7 -9 -8 -7 -11 -1 -5 0 5 20 -4 -18 -24 -18 -22 -16 11 -8 -16 -16 -7 -5 -2 1 -19 21 9 10 18 17 20 15 22 30 23 25 53 46 36 22 51 48 53 38 23 12 1 33 18 13 38 32 19 -9999 -9999 -9999 -9999 -9999 -9999 -9999 -9999 -9999 -9999 -9999
-9999 -9999 -9999 -9999 -9999 -9999 -9999 -9999 -9999 -9999 -9999 -9999 -9999 -9999 -9999 -9999 -9999 -9999 -9999 -9999 -9999 -9999 -9999 -9999 -9999 -9999 -9999 -9999 -9999 -9999 -9999 -9999 -9999 -9999 -9999 -9999 324 351 343 185 276 281 274 297 320 334 327 318 265 338 345 304 300 320 258 293 226 221 214 206 241 237 247 258 262 270 273 247 225 220 215 220 262 297 317 387 325 359 380 393 403 417 407 419 402 410 409 417 507 523 506 467 415 402 379 357 317 279 254 228 200 130 103 96 94 47 20 26 20 13 -1 2 -4 -2 -23 -23 -15 -5 -37 -9 -1 -5 -7 -7 -12 -11 -9 -9 -9 -8 -4 8 15 52 -3 -2 0 0 -21 -6 -6 -10 -6 -1 -7 -7 -5 -5 -5 -7 0 -13 -4 0 -3 11 4 -1 -9 -5 -20 -15 -11 -8 -1 1 1 18 3 4 11 17 7 11 13 16 18 31 27 22 18 31 36 35 44 27 35 51 42 32 27 24 23 11 27 158 -9999 -9999 -9999 -9999 -9999 -9999 -9999 -9999 -9999 -9999
-9999 -9999 -9999 -9999 -9999 -9999 -9999 -9999 -9999 -9999 -9999 -9999 -9999 -9999 -9999 -9999 -9999 -9999 -9999 -9999 -9999 -9999 -9999 -9999 -9999 -9999 -9999 -9999 -9999 -9999 -9999 -9999 -9999 -9999 -9999 -9999 356 338 353 329 274 274 296 329 339 344 377 343 384 317 328 343 307 323 297 260 229 228 223 216 218 249 261 285 258 250 270 267 245 247 243 257 274 313 272 320 319 310 345 370 378 428 412 408 418 426 484 497 502 512 511 492 448 430 426 333 334 294 259 224 189 95 79 73 102 59 46 0 -3 50 12 -7 5 -23 -23 -21 -19 -4 -37 -2 -6 -7 -2 0 30 20 8 -12 3 -5 -6 -2 -5 9 -10 -11 -12 -10 -12 -19 -22 -20 -21 -10 -17 -18 -9 -1 -7 -3 1 2 -14 -14 -24 -19 0 -2 9 -10 0 -7 0 -4 3 -25 37 17 14 31 26 0 22 26 27 19 20 27 34 7 60 50 35 38 40 32 20 11 10 6 13 7 14 14 12 83 -9999 -9999 -9999 -9999 -9999 -9999 -9999 -9999 -9999 -9999
-9999 -9999 -9999 -9999 -9999 -9999 -9999 -9999 -9999 -9999 -9999 -9999 -9999 -9999 -9999 -9999 -9999 -9999 -9999 -9999 -9999 -9999 -9999 -9999 -9999 -9999 -9999 -9999 -9999 -9999 -9999 -9999 -9999 -9999 -9999 -9999 -9999 328 310 300 290 279 285 305 326 325 376 344 328 312 364 302 262 337 318 262 221 223 228 233 227 235 231 211 273 249 235 248 262 265 279 289 302 319 330 322 325 321 311 357 357 366 368 388 396 401 453 473 496 505 503 491 475 445 441 438 363 324 268 172 132 124 97 77 68 60 29 15 51 74 20 -11 -20 -24 -5 -31 -3 -2 11 -18 -7 -3 5 -1 0 -7 -7 -10 -18 -16 -19 -16 -23 -20 13 -25 -19 -28 -18 -20 -16 -18 -12 -28 -6 -9 -7 -5 -4 -2 1 6 7 21 0 4 15 -10 -3 -10 -8 -4 0 -1 4 -15 26 55 15 80 12 22 12 41 30 26 64 54 50 30 31 27 31 30 37 28 43 53 28 2 16 14 13 20 8 15 141 -9999 -9999 -9999 -9999 -9999 -9999 -9999 -9999 -9999
-9999 -9999 -9999 -9999 -9999 -9999 -9999 -9999 -9999 -9999 -9999 -9999 -9999 -9999 -9999 -9999 -9999 -9999 -9999 -9999 -9999 -9999 -9999 -9999 -9999 -9999 -9999 -9999 -9999 -9999 -9999 -9999 -9999 -9999 -9999 -9999 -9999 -9999 307 302 283 266 275 273 289 334 284 293 326 347 444 352 253 332 333 258 230 229 214 239 240 247 243 243 243 247 238 229 244 238 242 238 302 325 319 319 325 312 309 314 322 319 338 408 409 404 435 458 469 480 493 480 462 456 443 436 384 263 198 173 142 106 150 103 100 72 50 36 72 70 33 12 -5 -12 14 -11 -2 0 -4 0 -2 -2 -2 -2 -6 -13 -14 -12 -15 -21 -21 -21 -18 -1 7 -13 -19 -15 -20 -16 -15 -11 -6 0 9 19 -15 -14 0 6 5 -15 1 -8 -4 4 5 9 -2 -15 -18 -16 -15 1 -5 25 21 10 14 15 23 18 23 13 18 29 16 9 13 22 20 21 17 25 20 30 39 54 27 10 3 6 5 1 14 15 23 -9999 -9999 -9999 -9999 -9999 -9999 -9999 -9999 -9999
-9999 -9999 -9999 -9999 -9999 -9999 -9999 -9999 -9999 -9999 -9999 -9999 -9999 -9999 -9999 -9999 -9999 -9999 -9999 -9999 -9999 -9999 -9999 -9999 -9999 -9999 -9999 -9999 -9999 -9999 -9999 -9999 -9999 -9999 -9999 -9999 -9999 -9999 -9999 284 274 262 268 268 274 270 297 338 392 357 394 293 245 325 346 267 256 250 -9999 -9999 244 238 236 241 246 248 246 241 239 243 247 242 239 246 212 317 331 289 300 294 300 302 332 391 410 405 426 454 457 462 471 459 455 451 386 378 388 327 228 187 153 113 153 134 114 81 67 48 75 77 35 1 -5 -14 14 0 11 1 -10 -5 -8 -9 2 -1 2 -2 2 21 20 -30 -24 -27 -4 -3 -3 35 -8 -1 -8 -18 -10 -15 -3 -6 -9 -6 -12 -7 -15 -4 -4 -6 -13 -15 -5 -7 -22 16 25 -1 21 10 0 7 22 11 9 11 6 24 24 8 14 15 10 23 21 18 10 36 11 15 20 15 14 6 9 34 -15 36 21 -3 -12 -9 0 5 5 40 -9999 -9999 -9999 -9999 -9999 -9999 -9999 -9999
-9999 -9999 -9999 -9999 -9999 -9999 -9999 -9999 -9999 -9999 -9999 -9999 -9999 -9999 -9999 -9999 -9999 -9999 -9999 -9999 -9999 -9999 -9999 -9999 -9999 -9999 -9999 -9999 -9999 -9999 -9999 -9999 -9999 -9999 -9999 -9999 -9999 -9999 -9999 303 281 264 264 275 264 260 200 375 377 149 207 278 216 340 407 310 286 -9999 -9999 -9999 -9999 233 238 250 259 247 251 253 253 247 247 251 240 251 249 240 245 271 227 281 283 297 421 425 424 411 427 449 444 446 450 455 463 434 431 423 389 376 261 202 157 118 112 159 96 68 46 37 51 68 56 -6 -11 -6 7 -10 -15 11 23 -4 -24 -41 -46 7 -40 -25 -44 0 -1 -5 -3 -10 5 -17 -7 4 -14 -23 -22 -32 -20 -24 -14 -17 -12 0 0 13 12 17 31 -5 -7 1 -33 -14 -6 1 0 1 5 -3 11 11 19 9 11 5 14 14 22 20 10 10 20 19 23 23 20 28 27 25 33 26 18 6 27 20 24 51 38 -4 -4 -7 3 -7 5 21 108 -9999 -9999 -9999 -9999 -9999 -9999 -9999
-9999 -9999 -9999 -9999 -9999 -9999 -9999 -9999 -9999 -9999 -9999 -9999 -9999 -9999 -9999 -9999 -9999 -9999 -9999 -9999 -9999 -9999 -9999 -9999 -9999 -9999 -9999 -9999 -9999 -9999 -9999 -9999 -9999 -9999 -9999 -9999 -9999 -9999 -9999 -9999 303 280 280 307 279 281 390 401 389 367 116 299 218 331 442 345 -9999 -9999 -9999 -9999 -9999 352 -9999 -9999 -9999 -9999 255 249 245 253 247 240 247 244 250 252 249 263 289 296 291 299 385 392 434 435 450 437 440 444 451 461 457 452 430 415 407 367 324 235 301 306 267 240 112 68 45 52 64 82 77 15 0 -16 2 -9 -17 -6 -7 -9 0 -31 -9999 -47 -36 -41 -15 1 -5 0 -2 -10 -5 -7 -11 -4 40 33 14 9 8 -10 -5 -11 -9 -11 6 -5 5 0 4 -4 0 6 10 14 0 0 -15 -10 -5 0 7 5 10 18 4 4 28 13 11 9 11 14 12 16 18 12 11 16 41 34 35 30 21 16 20 16 20 19 24 64 18 2 6 18 10 34 43 -9999 -9999 -9999 -9999 -9999 -9999 -9999
-9999 -9999 -9999 -9999 -9999 -9999 -9999 -9999 -9999 -9999 -9999 -9999 -9999 -9999 -9999 -9999 -9999 -9999 -9999 -9999 -9999 -9999 -9999 -9999 -9999 -9999 -9999 -9999 -9999 -9999 -9999 -9999 -9999 -9999 -9999 -9999 -9999 -9999 -9999 -9999 -9999 281 282 281 276 360 391 375 365 355 112 315 271 374 411 362 -9999 -9999 -9999 -9999 -9999 -9999 -9999 -9999 -9999 -9999 -9999 -9999 274 243 234 235 240 246 249 240 246 279 290 306 309 299 331 385 379 391 433 448 454 468 470 465 446 430 436 441 425 402 379 347 337 296 275 259 56 21 2 0 0 6 14 1 5 -5 -8 -9 -5 -13 -11 -5 -16 -28 -28 -12 -28 3 10 -1 7 16 36 26 0 -7 3 -30 -21 -16 0 -18 -15 -11 -5 -10 -7 -12 -10 0 -3 7 7 -20 -5 0 15 7 -9 30 19 40 49 12 15 9 8 5 -4 8 9 4 11 12 0 6 19 22 20 16 16 18 28 33 22 31 32 35 14 9 16 16 24 25 51 18 15 22 28 15 53 58 -9999 -9999 -9999 -9999 -9999 -9999
-9999 -9999 -9999 -9999 -9999 -9999 -9999 -9999 -9999 -9999 -9999 -9999 -9999 -9999 -9999 -9999 -9999 -9999 -9999 -9999 -9999 -9999 -9999 -9999 -9999 -9999 -9999 -9999 -9999 -9999 -9999 -9999 -9999 -9999 -9999 -9999 -9999 -9999 -9999 -9999 -9999 334 276 265 278 394 393 393 370 354 114 334 286 -9999 485 403 -9999 -9999 -9999 -9999 -9999 -9999 -9999 -9999 -9999 -9999 -9999 -9999 299 286 287 280 250 231 232 226 239 269 276 300 298 297 306 382 380 397 420 455 474 474 463 437 451 464 436 448 444 410 373 341 328 306 277 180 125 39 24 23 8 4 25 11 11 -2 -7 -3 11 7 -7 -2 4 17 47 30 -23 -25 -43 -37 -29 -36 -27 -5 -1 0 -12 -4 -13 -3 -15 14 -6 -2 4 2 7 4 7 12 11 11 13 2 7 -5 -8 -8 -9 -4 22 4 24 26 9 18 9 7 5 15 27 36 20 4 15 15 12 15 20 32 33 25 28 -15 25 22 31 16 16 19 24 30 25 19 28 73 25 14 31 36 27 59 154 -9999 -9999 -9999 -9999 -9999
-9999 -9999 -9999 -9999 -9999 -9999 -9999 -9999 -9999 -9999 -9999 -9999 -9999 -9999 -9999 -9999 -9999 -9999 -9999 -9999 -9999 -9999 -9999 -9999 -9999 -9999 -9999 -9999 -9999 -9999 -9999 -9999 -9999 -9999 -9999 -9999 -9999 -9999 -9999 -9999 -9999 -9999 311 358 390 369 367 356 363 365 298 324 296 -9999 -9999 -9999 -9999 -9999 -9999 -9999 -9999 -9999 -9999 -9999 -9999 -9999 -9999 286 306 311 316 347 305 275 269 230 232 264 274 286 296 295 331 391 389 393 382 432 453 469 469 464 454 450 426 434 434 474 404 338 313 299 254 175 183 70 30 13 7 28 51 50 10 46 21 -7 15 15 -2 -9 -22 -27 -37 -31 -7 -22 -36 -27 -7 -5 -8 -11 19 -37 -12 1 -3 -3 2 3 0 -3 -8 -13 -10 -3 -3 0 3 7 3 4 7 15 8 13 17 48 -9 19 7 5 6 1 15 15 8 7 17 15 28 27 26 15 25 35 24 20 25 25 26 47 25 21 31 28 22 20 23 17 29 19 24 58 27 12 40 36 28 36 82 -9999 -9999 -9999 -9999 -9999
-9999 -9999 -9999 -9999 -9999 -9999 -9999 -9999 -9999 -9999 -9999 -9999 -9999 -9999 -9999 -9999 -9999 -9999 -9999 -9999 -9999 -9999 -9999 -9999 -9999 -9999 -9999 -9999 -9999 -9999 -9999 -9999 -9999 -9999 -9999 -9999 -9999 -9999 -9999 -9999 -9999 -9999 -9999 356 412 372 366 343 358 371 317 346 324 -9999 -9999 -9999 -9999 -9999 -9999 -9999 -9999 -9999 -9999 -9999 -9999 -9999 -9999 279 299 321 308 336 337 279 268 276 297 301 283 288 306 301 331 416 402 391 393 418 441 463 462 451 442 435 412 375 438 418 426 371 332 315 225 184 127 152 73 50 41 31 60 30 16 -1 -18 -12 -2 9 0 -9 -13 -9 7 4 10 5 2 43 7 -3 0 -1 -7 -5 -5 -5 -4 0 6 3 4 16 0 0 5 7 6 1 7 5 -5 -2 -24 -21 -12 -5 -6 31 11 28 31 9 6 1 3 9 13 10 0 26 26 10 6 14 25 31 26 22 24 21 22 28 25 22 27 34 24 3 12 18 10 15 24 40 32 20 23 30 33 37 47 -9999 -9999 -9999 -9999 -9999
-9999 -9999 -9999 -9999 -9999 -9999 -9999 -9999 -9999 -9999 -9999 -9999 -9999 -9999 -9999 -9999 -9999 -9999 -9999 -9999 -9999 -9999 -9999 -9999 -9999 -9999 -9999 -9999 -9999 -9999 -9999 -9999 -9999 -9999 -9999 -9999 -9999 -9999 -9999 -9999 -9999 -9999 -9999 -9999 395 415 376 331 348 374 374 319 298 -9999 -9999 -9999 -9999 -9999 -9999 -9999 -9999 -9999 -9999 -9999 -9999 -9999 -9999 275 290 -9999 285 318 301 340 323 320 326 322 327 339 321 319 316 349 408 398 393 419 457 451 429 413 398 401 411 361 428 442 425 321 336 224 200 162 141 146 135 132 112 75 30 17 2 -8 -7 -15 -2 -8 4 4 -5 7 0 7 9 7 -3 1 -7 -9 -10 -11 0 6 -4 -12 -16 -15 6 -6 2 18 0 0 -1 3 4 1 -5 -10 -23 -31 -15 -6 -1 2 1 37 -8 -10 -4 4 6 4 6 8 8 15 10 -3 19 13 11 17 26 26 18 20 34 19 25 27 21 31 26 21 24 13 3 14 7 0 8 28 22 7 7 20 27 25 38 19 -9999 -9999 -9999 -9999
-9999 -9999 -9999 -9999 -9999 -9999 -9999 -9999 -9999 -9999 -9999 -9999 -9999 -9999 -9999 -9999 -9999 -9999 -9999 -9999 -9999 -9999 -9999 -9999 -9999 -9999 -9999 -9999 -9999 -9999 -9999 -9999 -9999 -9999 -9999 -9999 -9999 -9999 -9999 -9999 -9999 -9999 -9999 -9999 379 393 413 401 366 340 337 353 308 -9999 -9999 -9999 -9999 -9999 -9999 -9999 -9999 -9999 -9999 -9999 -9999 -9999 -9999 -9999 -9999 -9999 -9999 322 329 341 351 331 340 347 327 334 337 316 353 455 435 386 369 431 458 435 414 403 399 393 396 371 374 348 312 299 280 241 207 170 149 149 133 124 93 50 22 8 3 -23 0 -1 -17 -16 -11 -13 -21 -15 -2 -14 -22 0 -2 9 0 -11 -3 -8 -9 -1 3 18 5 -11 -11 -14 -10 -17 -2 3 -5 -1 1 2 -2 -2 -3 -3 -17 -13 -10 -17 27 11 10 15 17 14 10 6 20 5 11 -1 0 2 9 10 4 19 16 24 14 16 16 14 15 22 29 44 30 28 17 22 24 14 6 17 12 33 14 17 7 21 36 27 34 51 -9999 -9999 -9999 -9999
-9999 -9999 -9999 -9999 -9999 -9999 -9999 -9999 -9999 -9999 -9999 -9999 -9999 -9999 -9999 -9999 -9999 -9999 -9999 -9999 -9999 -9999 -9999 -9999 -9999 -9999 -9999 -9999 -9999 -9999 -9999 -9999 -9999 -9999 -9999 -9999 -9999 -9999 -9999 -9999 -9999 -9999 -9999 -9999 -9999 375 417 423 419 379 371 356 -9999 -9999 -9999 -9999 -9999 -9999 -9999 -9999 -9999 -9999 -9999 -9999 -9999 -9999 -9999 -9999 -9999 -9999 -9999 332 330 338 347 356 343 367 352 349 380 460 483 463 455 428 426 436 455 421 423 390 397 379 368 378 354 341 318 296 276 242 226 187 167 106 90 76 60 34 3 0 -7 -17 -6 -15 -17 -15 -16 -27 -26 25 -14 0 -44 -14 -7 -11 -10 -11 -6 0 23 2 0 -10 6 7 25 3 -25 -17 -10 -3 -6 -1 0 -1 3 5 7 -17 -12 1 6 31 8 -7 6 14 23 6 14 14 9 0 9 15 3 -11 1 5 16 19 13 31 16 12 5 19 17 20 24 38 35 21 25 26 26 13 20 12 24 40 74 11 20 28 32 31 36 47 -9999 -9999 -9999 -9999
-9999 -9999 -9999 -9999 -9999 -9999 -9999 -9999 -9999 -9999 -9999 -9999 -9999 -9999 -9999 -9999 -9999 -9999 -9999 -9999 -9999 -9999 -9999 -9999 -9999 -9999 -9999 -9999 -9999 -9999 -9999 -9999 -9999 -9999 -9999 -9999 -9999 -9999 -9999 -9999 -9999 -9999 -9999 -9999 -9999 -9999 366 371 383 322 352 343 -9999 -9999 -9999 -9999 -9999 -9999 -9999 -9999 -9999 -9999 -9999 -9999 -9999 -9999 -9999 -9999 -9999 -9999 -9999 338 342 342 361 373 341 378 422 448 413 486 461 417 413 431 386 421 436 422 414 392 384 382 365 359 343 312 339 303 281 259 235 208 184 146 91 82 58 20 -4 -2 -17 -18 -12 -23 -25 -21 -20 -26 -33 -35 -31 -20 -4 -4 -4 -5 0 16 -18 -2 -8 -2 5 0 -10 1 -17 -19 -17 -26 -19 -26 -28 7 0 3 4 10 12 5 -9 3 31 10 15 21 34 38 45 14 10 14 1 4 5 13 8 6 14 -3 6 7 1 4 22 21 11 12 11 16 27 33 46 25 25 31 16 29 34 54 56 43 69 50 19 32 40 44 46 49 -9999 -9999 -9999 -9999
-9999 -9999 -9999 -9999 -9999 -9999 -9999 -9999 -9999 -9999 -9999 -9999 -9999 -9999 -9999 -9999 -9999 -9999 -9999 -9999 -9999 -9999 -9999 -9999 -9999 -9999 -9999 -9999 -9999 -9999 -9999 -9999 -9999 -9999 -9999 -9999 -9999 -9999 -9999 -9999 -9999 -9999 -9999 -9999 -9999 -9999 -9999 389 394 373 380 332 -9999 -9999 -9999 -9999 -9999 -9999 -9999 -9999 -9999 -9999 -9999 -9999 -9999 -9999 -9999 -9999 -9999 -9999 -9999 -9999 407 358 371 368 368 413 471 492 526 499 446 374 352 397 418 426 440 447 404 402 381 382 381 369 372 383 332 306 286 258 239 216 193 147 104 68 50 15 11 1 -18 -24 -25 -14 -23 -20 -11 -6 0 -5 -28 -4 14 -12 -4 -1 -6 -20 -8 0 2 -6 -10 11 0 -2 -11 -3 -14 -18 -18 -7 -2 -13 0 -7 -10 3 4 16 14 25 10 8 3 -2 1 20 32 7 14 20 17 19 17 14 0 18 10 9 12 24 20 16 0 9 4 11 21 28 31 33 54 31 43 24 40 67 41 27 38 59 58 75 34 42 47 52 62 71 56 -9999 -9999 -9999
-9999 -9999 -9999 -9999 -9999 -9999 -9999 -9999 -9999 -9999 -9999 -9999 -9999 -9999 -9999 -9999 -9999 -9999 -9999 -9999 -9999 -9999 -9999 -9999 -9999 -9999 -9999 -9999 -9999 -9999 -9999 -9999 -9999 -9999 -9999 -9999 -9999 -9999 -9999 -9999 -9999 -9999 -9999 -9999 -9999 -9999 -9999 -9999 377 377 350 373 -9999 -9999 -9999 -9999 -9999 -9999 -9999 -9999 -9999 -9999 -9999 -9999 -9999 -9999 -9999 -9999 -9999 -9999 -9999 -9999 -9999 441 440 371 376 440 474 532 555 502 431 384 354 328 415 411 424 432 410 361 372 385 382 367 356 358 317 314 288 266 236 214 187 151 93 85 61 32 8 -4 -17 -21 -23 11 4 -5 7 0 -12 -5 -12 -17 -14 -10 0 0 6 -6 1 2 3 -3 6 -7 -4 -6 -11 -7 -14 -23 -4 -2 0 3 0 1 -4 -1 4 20 27 26 25 20 8 19 1 9 17 12 23 20 23 24 20 -11 23 26 36 32 18 23 21 12 31 19 16 18 8 20 25 30 43 33 56 52 38 34 14 33 40 46 39 89 36 34 40 66 96 76 63 -9999 -9999 -9999
-9999 -9999 -9999 -9999 -9999 -9999 -9999 -9999 -9999 -9999 -9999 -9999 -9999 -9999 -9999 -9999 -9999 -9999 -9999 -9999 -9999 -9999 -9999 -9999 -9999 -9999 -9999 -9999 -9999 -9999 -9999 -9999 -9999 -9999 -9999 -9999 -9999 -9999 -9999 -9999 -9999 -9999 -9999 -9999 -9999 -9999 -9999 -9999 353 378 360 317 -9999 -9999 -9999 -9999 -9999 -9999 -9999 -9999 -9999 -9999 -9999 -9999 -9999 -9999 -9999 -9999 -9999 -9999 -9999 -9999 -9999 -9999 468 427 431 473 517 527 536 519 422 375 352 345 358 382 433 413 317 301 336 380 372 379 368 346 349 300 290 260 242 218 183 161 98 85 76 44 18 13 -4 -16 -11 0 6 10 22 14 0 10 -11 -15 2 -17 -2 -6 -3 0 7 5 6 -2 4 9 10 -12 -24 -30 -17 -9 -7 -8 2 21 5 1 -7 7 -7 3 4 13 25 36 33 48 11 0 0 18 12 18 14 20 15 19 10 15 21 55 43 47 32 35 29 20 23 25 23 30 15 40 34 29 18 18 9 8 -5 10 16 17 24 74 29 31 69 73 88 73 62 57 -9999 -9999
-9999 -9999 -9999 -9999 -9999 -9999 -9999 -9999 -9999 -9999 -9999 -9999 -9999 -9999 -9999 -9999 -9999 -9999 -9999 -9999 -9999 -9999 -9999 -9999 -9999 -9999 -9999 -9999 -9999 -9999 -9999 -9999 -9999 -9999 -9999 -9999 -9999 -9999 -9999 -9999 -9999 -9999 -9999 -9999 -9999 -9999 -9999 -9999 -9999 358 346 329 -9999 -9999 -9999 -9999 -9999 -9999 -9999 -9999 -9999 -9999 -9999 -9999 -9999 -9999 -9999 -9999 -9999 -9999 -9999 -9999 -9999 -9999 488 460 460 506 523 539 543 528 448 400 346 352 356 390 423 329 281 274 285 358 375 390 368 362 376 261 295 272 269 273 227 164 128 82 68 49 48 58 47 17 -10 3 5 6 21 8 4 5 12 -10 -14 -7 7 11 5 3 7 3 15 -29 -12 -11 -14 -15 -9 -1 0 6 5 0 -4 11 -1 -9 -7 13 16 26 23 -11 -3 4 -1 7 18 43 3 6 12 10 64 23 15 11 14 8 17 19 39 47 42 45 40 37 33 30 33 31 27 20 18 19 23 11 9 -3 -15 8 26 36 45 44 33 33 83 90 75 72 47 -9999 -9999 -9999
-9999 -9999 -9999 -9999 -9999 -9999 -9999 -9999 -9999 -9999 -9999 -9999 -9999 -9999 -9999 -9999 -9999 -9999 -9999 -9999 -9999 -9999 -9999 -9999 -9999 -9999 -9999 -9999 -9999 -9999 -9999 -9999 -9999 -9999 -9999 -9999 -9999 -9999 -9999 -9999 -9999 -9999 -9999 -9999 -9999 -9999 -9999 -9999 -9999 -9999 364 313 -9999 -9999 -9999 -9999 -9999 -9999 -9999 -9999 -9999 -9999 -9999 -9999 -9999 -9999 -9999 -9999 -9999 -9999 -9999 -9999 -9999 -9999 -9999 474 501 500 517 538 546 548 458 397 382 359 348 379 382 335 277 271 260 345 366 369 359 346 363 358 319 326 300 263 235 199 120 99 61 47 36 51 51 51 12 13 13 17 2 15 10 -4 22 18 -25 -8 -6 -13 -15 -6 -1 -7 7 21 11 4 -10 9 7 10 5 7 0 7 -25 -33 -40 -38 14 8 28 23 21 27 37 33 -6 1 -2 8 19 4 8 -3 12 15 13 10 20 25 10 23 33 39 25 31 36 41 39 46 48 22 26 23 18 15 12 19 19 -14 -13 -15 4 17 13 37 39 44 64 63 69 67 58 -9999 -9999 -9999
-9999 -9999 -9999 -9999 -9999 -9999 -9999 -9999 -9999 -9999 -9999 -9999 -9999 -9999 -9999 -9999 -9999 -9999 -9999 -9999 -9999 -9999 -9999 -9999 -9999 -9999 -9999 -9999 -9999 -9999 -9999 -9999 -9999 -9999 -9999 -9999 -9999 -9999 -9999 -9999 -9999 -9999 -9999 -9999 -9999 -9999 -9999 -9999 -9999 -9999 -9999 407 -9999 -9999 -9999 -9999 -9999 -9999 -9999 -9999 -9999 -9999 -9999 -9999 -9999 -9999 -9999 -9999 -9999 -9999 -9999 -9999 -9999 -9999 -9999 -9999 494 502 536 564 576 509 476 414 373 359 337 339 396 333 298 286 292 352 371 359 366 367 367 328 283 298 282 263 224 172 124 91 68 80 36 30 7 12 41 8 8 8 -2 21 29 10 7 18 -5 -12 -9 1 1 -4 -4 1 6 -7 16 4 12 10 12 15 -7 14 15 -22 -7 -31 -37 -5 17 30 17 2 1 1 1 11 14 15 10 12 19 7 2 -1 12 13 16 15 15 36 11 44 62 50 43 36 35 39 32 37 25 25 23 16 23 13 7 6 -2 6 11 0 -11 14 15 12 29 21 58 57 70 57 58 -9999 -9999 -9999
-9999 -9999 -9999 -9999 -9999 -9999 -9999 -9999 -9999 -9999 -9999 -9999 -9999 -9999 -9999 -9999 -9999 -9999 -9999 -9999 -9999 -9999 -9999 -9999 -9999 -9999 -9999 -9999 -9999 -9999 -9999 -9999 -9999 -9999 -9999 -9999 -9999 -9999 -9999 -9999 -9999 -9999 -9999 -9999 -9999 -9999 -9999 -9999 -9999 -9999 -9999 400 -9999 -9999 -9999 -9999 -9999 -9999 -9999 -9999 -9999 -9999 -9999 -9999 -9999 -9999 -9999 -9999 -9999 -9999 -9999 -9999 -9999 -9999 -9999 485 511 513 536 547 556 547 496 438 393 356 313 351 394 325 306 330 341 341 372 370 357 346 328 349 309 297 276 269 238 192 132 105 70 72 45 10 16 64 63 20 30 -17 2 -4 7 2 0 31 20 -15 -7 -10 -3 0 -7 7 13 -7 2 9 4 8 1 -21 20 -19 -29 -31 -28 -7 -6 1 19 12 21 15 4 15 -9 3 2 0 2 -9 0 3 2 11 15 19 15 46 39 45 33 30 27 27 42 38 46 28 30 35 34 37 25 26 24 18 23 12 18 11 -3 0 16 21 50 21 20 30 46 79 64 56 61 -9999 -9999 -9999
-9999 -9999 -9999 -9999 -9999 -9999 -9999 -9999 -9999 -9999 -9999 -9999 -9999 -9999 -9999 -9999 -9999 -9999 -9999 -9999 -9999 -9999 -9999 -9999 -9999 -9999 -9999 -9999 -9999 -9999 -9999 -9999 -9999 -9999 -9999 -9999 -9999 -9999 -9999 -9999 -9999 -9999 -9999 -9999 -9999 -9999 -9999 -9999 -9999 -9999 -9999 -9999 -9999 -9999 -9999 -9999 -9999 -9999 -9999 -9999 -9999 -9999 -9999 -9999 -9999 -9999 -9999 -9999 -9999 -9999 -9999 -9999 -9999 -9999 511 522 499 516 491 541 545 540 528 469 405 239 286 316 361 353 312 346 364 329 370 365 349 345 319 313 291 291 282 251 234 170 144 99 60 82 36 18 35 55 43 33 -12 -7 -2 -10 -1 10 -8 -3 35 12 -4 0 -19 0 3 -2 2 -1 -9 -9 -16 -32 -12 7 30 -8 -14 0 -12 -11 3 11 1 -7 13 19 17 16 8 6 4 -4 10 1 0 -1 16 11 7 18 18 16 5 28 42 37 31 21 34 19 28 28 28 34 29 30 28 23 21 26 33 30 17 21 20 9 4 10 0 10 25 15 46 52 57 57 -9999 -9999 -9999 -9999
-9999 -9999 -9999 -9999 -9999 -9999 -9999 -9999 -9999 -9999 -9999 -9999 -9999 -9999 -9999 -9999 -9999 -9999 -9999 -9999 -9999 -9999 -9999 -9999 -9999 -9999 -9999 -9999 -9999 -9999 -9999 -9999 -9999 -9999 -9999 -9999 -9999 -9999 -9999 -9999 -9999 -9999 -9999 -9999 -9999 -9999 -9999 -9999 -9999 -9999 -9999 -9999 -9999 -9999 -9999 -9999 -9999 -9999 -9999 -9999 -9999 -9999 -9999 -9999 -9999 -9999 -9999 -9999 -9999 -9999 -9999 -9999 -9999 513 526 519 499 472 496 541 550 549 566 500 426 279 276 308 355 368 336 334 356 330 357 373 349 327 318 302 298 286 278 276 229 203 138 123 86 84 69 28 3 3 32 52 27 21 22 9 7 22 19 -5 8 43 0 -1 -3 -5 -1 0 0 1 16 -1 7 6 31 21 -5 -20 0 4 -5 -2 14 23 25 -5 30 -1 3 0 1 27 18 -1 14 -6 -6 0 10 19 10 15 -1 27 19 20 16 20 32 34 36 23 23 23 25 19 33 25 45 29 34 34 32 17 18 24 17 24 24 23 39 14 12 21 36 53 63 66 -9999 -9999 -9999 -9999
-9999 -9999 -9999 -9999 -9999 -9999 -9999 -9999 -9999 -9999 -9999 -9999 -9999 -9999 -9999 -9999 -9999 -9999 -9999 -9999 -9999 -9999 -9999 -9999 -9999 -9999 -9999 -9999 -9999 -9999 -9999 -9999 -9999 -9999 -9999 -9999 -9999 -9999 -9999 -9999 -9999 -9999 -9999 -9999 -9999 -9999 -9999 -9999 -9999 -9999 -9999 -9999 -9999 -9999 -9999 -9999 -9999 -9999 -9999 -9999 -9999 -9999 -9999 -9999 -9999 -9999 -9999 -9999 -9999 -9999 -9999 -9999 -9999 501 505 552 507 491 490 545 567 568 579 537 434 392 267 305 315 346 336 282 335 348 354 358 335 326 318 311 279 286 293 264 236 195 166 118 93 63 32 6 2 15 -1 31 20 17 21 6 5 15 36 13 18 27 21 2 -7 -11 -13 -9 -12 -21 -6 -19 -16 3 10 52 25 15 15 9 -13 12 4 21 17 44 5 17 18 15 -18 7 -8 0 23 -25 -11 2 9 10 21 17 10 12 12 14 5 11 12 18 27 16 9 11 15 20 28 31 36 40 39 32 19 31 20 29 19 11 21 39 52 64 36 29 10 31 57 62 -9999 -9999 -9999 -9999
-9999 -9999 -9999 -9999 -9999 -9999 -9999 -9999 -9999 -9999 -9999 -9999 -9999 -9999 -9999 -9999 -9999 -9999 -9999 -9999 -9999 -9999 -9999 -9999 -9999 -9999 -9999 -9999 -9999 -9999 -9999 -9999 -9999 -9999 -9999 -9999 -9999 -9999 -9999 -9999 -9999 -9999 -9999 -9999 -9999 -9999 -9999 -9999 -9999 -9999 -9999 -9999 -9999 -9999 -9999 -9999 -9999 -9999 -9999 -9999 -9999 -9999 -9999 -9999 -9999 -9999 -9999 -9999 -9999 -9999 -9999 -9999 -9999 -9999 506 515 514 524 549 571 592 585 586 516 449 374 300 313 325 344 339 338 352 346 338 326 338 314 310 295 290 253 272 279 278 195 161 108 96 65 51 31 36 38 15 4 47 41 8 14 20 17 33 29 9 0 51 38 3 -7 -7 -4 -15 10 12 -2 0 14 -23 4 -7 0 7 0 11 -31 0 19 19 27 34 12 28 21 10 0 -5 -9 -12 -16 1 11 14 16 13 10 11 13 0 3 -6 22 32 24 -5 17 16 5 8 10 23 25 27 36 41 36 43 45 45 57 43 25 17 34 35 20 46 37 35 23 34 51 -9999 -9999 -9999 -9999
-9999 -9999 -9999 -9999 -9999 -9999 -9999 -9999 -9999 -9999 -9999 -9999 -9999 -9999 -9999 -9999 -9999 -9999 -9999 -9999 -9999 -9999 -9999 -9999 -9999 -9999 -9999 -9999 -9999 -9999 -9999 -9999 -9999 -9999 -9999 -9999 -9999 -9999 -9999 -9999 -9999 -9999 -9999 -9999 -9999 -9999 -9999 -9999 -9999 -9999 -9999 -9999 -9999 -9999 -9999 -9999 -9999 -9999 -9999 -9999 -9999 -9999 -9999 -9999 -9999 -9999 -9999 -9999 -9999 -9999 -9999 -9999 -9999 -9999 508 516 552 568 572 553 536 549 539 528 475 375 272 319 327 344 351 297 345 346 354 343 340 316 307 304 277 248 245 252 209 174 152 131 49 50 57 27 12 -3 -11 14 32 45 14 19 38 34 8 26 4 2 27 52 41 -4 0 4 2 6 3 -4 -10 2 0 8 4 10 9 33 -7 -9999 17 18 -6 25 30 65 -5 12 14 29 36 27 -18 -6 -12 9 22 12 12 4 16 23 45 27 28 10 12 11 13 4 26 24 16 16 25 19 35 33 43 44 46 47 51 43 42 48 24 23 46 63 52 36 37 33 37 -9999 -9999 -9999 -9999 -9999
-9999 -9999 -9999 -9999 -9999 -9999 -9999 -9999 -9999 -9999 -9999 -9999 -9999 -9999 -9999 -9999 -9999 -9999 -9999 -9999 -9999 -9999 -9999 -9999 -9999 -9999 -9999 -9999 -9999 -9999 -9999 -9999 -9999 -9999 -9999 -9999 -9999 -9999 -9999 -9999 -9999 -9999 -9999 -9999 -9999 -9999 -9999 -9999 -9999 -9999 -9999 -9999 -9999 -9999 -9999 -9999 -9999 -9999 -9999 -9999 -9999 -9999 -9999 -9999 -9999 -9999 -9999 -9999 -9999 -9999 -9999 -9999 -9999 -9999 540 558 547 529 491 455 443 484 502 503 446 399 355 322 319 323 330 334 353 358 329 334 334 318 334 279 266 229 205 182 151 130 126 107 37 32 20 10 23 14 0 6 20 30 48 46 20 17 14 25 31 2 -1 57 26 27 20 -19 -12 0 -4 0 0 1 3 0 10 10 23 57 -9999 -9999 -28 3 18 36 31 26 40 20 14 8 26 43 33 -5 10 7 18 23 15 20 37 33 12 30 27 23 26 23 23 22 27 24 17 22 15 27 28 31 21 34 36 36 36 42 40 37 37 39 47 55 54 46 -9999 -9999 -9999 -9999 -9999 -9999 -9999 -9999
-9999 -9999 -9999 -9999 -9999 -9999 -9999 -9999 -9999 -9999 -9999 -9999 -9999 -9999 -9999 -9999 -9999 -9999 -9999 -9999 -9999 -9999 -9999 -9999 -9999 -9999 -9999 -9999 -9999 -9999 -9999 -9999 -9999 -9999 -9999 -9999 -9999 -9999 -9999 -9999 -9999 -9999 -9999 -9999 -9999 -9999 -9999 -9999 -9999 -9999 -9999 -9999 -9999 -9999 -9999 -9999 -9999 -9999 -9999 -9999 -9999 -9999 -9999 -9999 -9999 -9999 -9999 -9999 -9999 -9999 -9999 -9999 -9999 -9999 523 540 542 523 395 400 402 412 417 471 484 428 370 354 320 326 330 348 366 356 354 344 330 297 274 259 234 198 158 155 77 74 80 73 36 30 16 11 28 -10 -20 48 48 31 -4 4 29 34 20 12 24 38 5 25 37 34 7 -14 -21 -21 -22 -5 -10 -5 -1 3 10 12 -9999 147 145 -25 -27 -27 11 27 41 9 20 61 -9 6 7 22 36 10 10 19 15 20 71 24 23 12 23 29 25 32 26 42 38 38 19 33 31 37 30 33 26 23 21 40 21 26 27 21 22 34 36 58 51 58 57 -9999 -9999 -9999 -9999 -9999 -9999 -9999 -9999 -9999
-9999 -9999 -9999 -9999 -9999 -9999 -9999 -9999 -9999 -9999 -9999 -9999 -9999 -9999 -9999 -9999 -9999 -9999 -9999 -9999 -9999 -9999 -9999 -9999 -9999 -9999 -9999 -9999 -9999 -9999 -9999 -9999 -9999 -9999 -9999 -9999 -9999 -9999 -9999 -9999 -9999 -9999 -9999 -9999 -9999 -9999 -9999 -9999 -9999 -9999 -9999 -9999 -9999 -9999 -9999 -9999 -9999 -9999 -9999 -9999 -9999 -9999 -9999 -9999 -9999 -9999 -9999 -9999 -9999 -9999 -9999 -9999 -9999 -9999 517 535 553 496 410 411 393 395 462 489 488 454 399 371 366 320 324 350 383 359 339 316 298 277 250 248 250 202 164 61 115 100 110 96 62 38 41 23 9 4 13 25 19 -3 -15 -5 0 14 4 12 13 31 -4 23 15 23 31 4 -7 -4 -6 -2 -15 -10 -4 0 6 -9999 101 145 137 -28 -31 -25 -13 28 15 28 32 40 23 0 4 7 5 9 10 18 50 33 18 24 38 12 20 7 25 45 36 29 49 30 41 38 36 30 30 38 18 18 17 27 13 11 25 34 41 37 44 52 39 44 50 66 -9999 -9999 -9999 -9999 -9999 -9999 -9999 -9999
-9999 -9999 -9999 -9999 -9999 -9999 -9999 -9999 -9999 -9999 -9999 -9999 -9999 -9999 -9999 -9999 -9999 -9999 -9999 -9999 -9999 -9999 -9999 -9999 -9999 -9999 -9999 -9999 -9999 -9999 -9999 -9999 -9999 -9999 -9999 -9999 -9999 -9999 -9999 -9999 -9999 -9999 -9999 -9999 -9999 -9999 -9999 -9999 -9999 -9999 -9999 -9999 -9999 -9999 -9999 -9999 -9999 -9999 -9999 -9999 -9999 -9999 -9999 -9999 -9999 -9999 -9999 -9999 -9999 -9999 -9999 -9999 -9999 -9999 505 526 530 521 492 398 398 410 488 524 525 492 436 436 384 325 318 345 366 352 324 311 265 278 270 246 229 205 210 185 144 148 143 119 84 65 42 17 17 14 -16 -12 20 1 7 -6 -2 17 2 10 7 1 -14 -27 4 14 22 26 -1 -6 -15 -18 -10 -7 -7 -9 -8 -28 184 184 28 -11 -32 -25 38 0 5 -2 33 34 9 70 56 30 16 29 -14 18 17 -2 14 25 21 10 25 10 38 40 37 24 37 45 37 40 42 30 34 30 25 21 30 22 37 29 30 33 22 21 34 42 49 50 54 65 -9999 -9999 -9999 -9999 -9999 -9999 -9999 -9999
-9999 -9999 -9999 -9999 -9999 -9999 -9999 -9999 -9999 -9999 -9999 -9999 -9999 -9999 -9999 -9999 -9999 -9999 -9999 -9999 -9999 -9999 -9999 -9999 -9999 -9999 -9999 -9999 -9999 -9999 -9999 -9999 -9999 -9999 -9999 -9999 -9999 -9999 -9999 -9999 -9999 -9999 -9999 -9999 -9999 -9999 -9999 -9999 -9999 -9999 -9999 -9999 -9999 -9999 -9999 -9999 -9999 -9999 -9999 -9999 -9999 -9999 -9999 -9999 -9999 -9999 -9999 -9999 -9999 -9999 -9999 -9999 -9999 -9999 -9999 556 547 547 519 480 442 478 511 557 567 505 456 430 417 384 316 330 335 350 331 322 312 292 275 247 233 237 239 188 187 190 163 142 205 65 58 48 6 4 5 -11 -7 15 -16 -13 -34 -11 -21 -15 -20 -24 -8 -10 -17 3 10 7 24 2 -10 -8 -6 3 -24 -25 1 8 -18 -9999 -9999 15 -34 -23 -17 -14 3 1 6 3 -1 14 78 52 53 31 5 15 22 23 17 21 26 31 28 40 45 54 46 52 30 38 -1 35 37 33 31 25 31 20 16 23 30 28 12 6 10 14 28 -25 37 41 50 61 -9999 -9999 -9999 -9999 -9999 -9999 -9999 -9999
-9999 -9999 -9999 -9999 -9999 -9999 -9999 -9999 -9999 -9999 -9999 -9999 -9999 -9999 -9999 -9999 -9999 -9999 -9999 -9999 -9999 -9999 -9999 -9999 -9999 -9999 -9999 -9999 -9999 -9999 -9999 -9999 -9999 -9999 -9999 -9999 -9999 -9999 -9999 -9999 -9999 -9999 -9999 -9999 -9999 -9999 -9999 -9999 -9999 -9999 -9999 -9999 -9999 -9999 -9999 -9999 -9999 -9999 -9999 -9999 -9999 -9999 -9999 -9999 -9999 -9999 -9999 -9999 -9999 -9999 -9999 -9999 -9999 -9999 -9999 548 525 505 -9999 -9999 -9999 -9999 486 552 560 517 480 443 435 385 344 356 341 330 317 309 312 298 270 268 248 232 252 245 159 140 220 182 106 76 50 32 12 9 6 2 10 21 -8 -2 -16 -22 -4 -1 -21 -7 -13 3 -15 -3 27 60 53 15 13 -5 8 40 -5 -8 -30 9 10 0 119 88 23 -20 -20 -12 -9999 12 39 6 3 0 12 16 4 39 11 15 14 11 16 20 23 23 22 30 47 27 45 43 39 29 33 24 19 27 28 22 23 26 14 18 14 34 21 20 29 13 10 19 22 37 43 48 -9999 -9999 -9999 -9999 -9999 -9999 -9999 -9999
-9999 -9999 -9999 -9999 -9999 -9999 -9999 -9999 -9999 -9999 -9999 -9999 -9999 -9999 -9999 -9999 -9999 -9999 -9999 -9999 -9999 -9999 -9999 -9999 -9999 -9999 -9999 -9999 -9999 -9999 -9999 -9999 -9999 -9999 -9999 -9999 -9999 -9999 -9999 -9999 -9999 -9999 -9999 -9999 -9999 -9999 -9999 -9999 -9999 -9999 -9999 -9999 -9999 -9999 -9999 -9999 -9999 -9999 -9999 -9999 -9999 -9999 -9999 -9999 -9999 -9999 -9999 -9999 -9999 -9999 -9999 -9999 -9999 -9999 -9999 -9999 -9999 -9999 -9999 -9999 -9999 -9999 -9999 485 517 545 507 462 443 412 423 409 366 327 316 309 304 299 284 273 167 232 241 235 207 198 189 141 84 64 43 11 7 18 6 14 -24 20 -5 -5 11 38 -12 5 7 -2 -20 -7 -26 -35 -31 16 65 52 23 32 19 3 14 16 -9999 -18 6 1 -28 -9999 103 37 -20 -7 -17 34 -19 23 26 7 11 11 7 9 10 -6 13 6 -2 21 20 21 18 43 31 32 30 42 47 35 38 31 35 32 30 32 20 24 22 19 22 22 17 15 14 8 23 13 13 19 34 41 -9999 -9999 -9999 -9999 -9999 -9999 -9999 -9999
-9999 -9999 -9999 -9999 -9999 -9999 -9999 -9999 -9999 -9999 -9999 -9999 -9999 -9999 -9999 -9999 -9999 -9999 -9999 -9999 -9999 -9999 -9999 -9999 -9999 -9999 -9999 -9999 -9999 -9999 -9999 -9999 -9999 -9999 -9999 -9999 -9999 -9999 -9999 -9999 -9999 -9999 -9999 -9999 -9999 -9999 -9999 -9999 -9999 -9999 -9999 -9999 -9999 -9999 -9999 -9999 -9999 -9999 -9999 -9999 -9999 -9999 -9999 -9999 -9999 -9999 -9999 -9999 -9999 -9999 -9999 -9999 -9999 -9999 -9999 -9999 -9999 -9999 -9999 -9999 -9999 -9999 -9999 -9999 483 545 540 507 481 480 467 446 379 326 307 312 303 291 291 256 251 245 230 221 202 175 170 136 92 75 35 21 14 18 25 7 41 49 26 0 3 -28 -2 -13 -16 -21 -8 -25 -32 -41 -22 15 62 61 32 26 18 18 10 24 -9999 -9999 -9 6 0 -28 103 62 -9999 -23 -12 -18 86 10 46 29 18 5 7 3 12 10 15 19 14 17 22 26 44 24 39 46 29 5 28 37 38 25 33 40 32 27 29 27 36 28 45 31 42 29 20 23 28 30 27 22 17 52 -9999 -9999 -9999 -9999 -9999 -9999 -9999 -9999
-9999 -9999 -9999 -9999 -9999 -9999 -9999 -9999 -9999 -9999 -9999 -9999 -9999 -9999 -9999 -9999 -9999 -9999 -9999 -9999 -9999 -9999 -9999 -9999 -9999 -9999 -9999 -9999 -9999 -9999 -9999 -9999 -9999 -9999 -9999 -9999 -9999 -9999 -9999 -9999 -9999 -9999 -9999 -9999 -9999 -9999 -9999 -9999 -9999 -9999 -9999 -9999 -9999 -9999 -9999 -9999 -9999 -9999 -9999 -9999 -9999 -9999 -9999 -9999 -9999 -9999 -9999 -9999 -9999 -9999 -9999 -9999 -9999 -9999 -9999 -9999 -9999 -9999 -9999 -9999 -9999 -9999 -9999 -9999 445 518 575 555 510 485 483 458 384 335 325 316 328 282 264 260 238 227 228 237 243 197 169 121 104 87 43 30 36 20 5 0 -9 19 7 -1 -15 -27 -4 -12 -12 -23 -23 -28 -35 -30 -21 2 24 68 52 32 26 18 31 5 26 -9999 22 12 5 9 -27 62 21 -1 25 44 65 59 15 28 33 22 41 6 20 11 12 17 21 22 17 25 10 35 40 42 41 41 34 38 34 37 36 33 34 27 37 25 30 31 29 35 30 30 25 28 34 40 45 45 23 44 -9999 -9999 -9999 -9999 -9999 -9999 -9999 -9999
-9999 -9999 -9999 -9999 -9999 -9999 -9999 -9999 -9999 -9999 -9999 -9999 -9999 -9999 -9999 -9999 -9999 -9999 -9999 -9999 -9999 -9999 -9999 -9999 -9999 -9999 -9999 -9999 -9999 -9999 -9999 -9999 -9999 -9999 -9999 -9999 -9999 -9999 -9999 -9999 -9999 -9999 -9999 -9999 -9999 -9999 -9999 -9999 -9999 -9999 -9999 -9999 -9999 -9999 -9999 -9999 -9999 -9999 -9999 -9999 -9999 -9999 -9999 -9999 -9999 -9999 -9999 -9999 -9999 -9999 -9999 -9999 -9999 -9999 -9999 -9999 -9999 -9999 -9999 -9999 -9999 -9999 -9999 -9999 -9999 452 554 581 522 485 484 465 410 353 320 358 314 276 254 242 228 208 193 198 224 169 145 113 88 60 39 47 37 -4 -2 0 -11 2 8 -4 -14 -7 -14 -31 -31 -31 -33 -30 4 -17 -7 7 19 56 76 45 25 11 29 21 6 25 21 -23 14 12 0 -28 21 114 0 79 34 0 -17 -5 1 19 26 20 29 18 20 18 3 11 16 28 21 37 37 30 34 32 20 29 24 35 30 32 40 26 26 20 23 26 29 26 28 30 34 27 19 10 14 41 28 43 18 -9999 -9999 -9999 -9999 -9999 -9999 -9999
-9999 -9999 -9999 -9999 -9999 -9999 -9999 -9999 -9999 -9999 -9999 -9999 -9999 -9999 -9999 -9999 -9999 -9999 -9999 -9999 -9999 -9999 -9999 -9999 -9999 -9999 -9999 -9999 -9999 -9999 -9999 -9999 -9999 -9999 -9999 -9999 -9999 -9999 -9999 -9999 -9999 -9999 -9999 -9999 -9999 -9999 -9999 -9999 -9999 -9999 -9999 -9999 -9999 -9999 -9999 -9999 -9999 -9999 -9999 -9999 -9999 -9999 -9999 -9999 -9999 -9999 -9999 -9999 -9999 -9999 -9999 -9999 -9999 -9999 -9999 -9999 -9999 -9999 -9999 -9999 -9999 -9999 -9999 -9999 -9999 -9999 504 548 440 434 465 465 407 402 375 376 290 265 261 256 215 197 194 152 148 159 132 99 69 65 41 35 14 14 4 -9 2 27 12 -3 -4 1 -16 -26 -24 -36 -14 -18 -15 -5 -7 -12 -16 23 61 40 25 0 20 24 15 38 25 -9999 2 17 10 6 -28 93 25 31 17 12 3 23 18 14 3 3 4 16 -1 17 20 25 18 20 25 43 6 40 15 26 38 40 30 25 27 28 31 27 24 29 23 27 42 16 25 25 25 22 28 22 27 23 13 27 46 -9999 -9999 -9999 -9999 -9999 -9999 -9999
-9999 -9999 -9999 -9999 -9999 -9999 -9999 -9999 -9999 -9999 -9999 -9999 -9999 -9999 -9999 -9999 -9999 -9999 -9999 -9999 -9999 -9999 -9999 -9999 -9999 -9999 -9999 -9999 -9999 -9999 -9999 -9999 -9999 -9999 -9999 -9999 -9999 -9999 -9999 -9999 -9999 -9999 -9999 -9999 -9999 -9999 -9999 -9999 -9999 -9999 -9999 -9999 -9999 -9999 -9999 -9999 -9999 -9999 -9999 -9999 -9999 -9999 -9999 -9999 -9999 -9999 -9999 -9999 -9999 -9999 -9999 -9999 -9999 -9999 -9999 -9999 -9999 -9999 -9999 -9999 -9999 -9999 -9999 -9999 -9999 -9999 465 495 376 373 421 351 339 455 476 403 345 265 244 228 210 189 174 167 167 148 156 109 94 76 63 56 32 18 12 -1 -9 14 -9 -21 -9 -18 -3 -27 -17 10 -14 -12 5 23 -12 0 -17 25 50 33 18 20 24 22 23 23 31 27 -25 -25 8 17 20 67 23 -3 -2 3 16 6 -10 7 23 15 7 12 20 8 19 19 22 24 25 27 1 47 39 32 34 32 33 35 48 44 37 26 44 19 9 20 21 24 21 28 29 30 29 21 29 30 45 21 55 -9999 -9999 -9999 -9999 -9999 -9999 -9999
-9999 -9999 -9999 -9999 -9999 -9999 -9999 -9999 -9999 -9999 -9999 -9999 -9999 -9999 -9999 -9999 -9999 -9999 -9999 -9999 -9999 -9999 -9999 -9999 -9999 -9999 -9999 -9999 -9999 -9999 -9999 -9999 -9999 -9999 -9999 -9999 -9999 -9999 -9999 -9999 -9999 -9999 -9999 -9999 -9999 -9999 -9999 -9999 -9999 -9999 -9999 -9999 -9999 -9999 -9999 -9999 -9999 -9999 -9999 -9999 -9999 -9999 -9999 -9999 -9999 -9999 -9999 -9999 -9999 -9999 -9999 -9999 -9999 -9999 -9999 -9999 -9999 -9999 -9999 -9999 -9999 -9999 -9999 -9999 -9999 -9999 437 432 372 412 369 334 328 398 433 402 347 279 264 242 226 209 200 190 187 163 119 119 89 81 48 57 44 24 23 8 25 16 23 1 -1 -15 -2 1 -12 -9 -9 5 1 -6 2 4 -12 30 36 14 8 20 12 10 14 13 14 31 -27 -23 -9 13 24 -15 10 8 20 -9 3 -6 12 22 31 0 2 10 17 18 24 23 33 19 28 24 20 32 33 36 36 40 43 34 29 32 25 27 22 23 8 19 18 28 17 30 27 23 2 25 20 26 37 41 62 -9999 -9999 -9999 -9999 -9999 -9999 -9999
-9999 -9999 -9999 -9999 -9999 -9999 -9999 -9999 -9999 -9999 -9999 -9999 -9999 -9999 -9999 -9999 -9999 -9999 -9999 -9999 -9999 -9999 -9999 -9999 -9999 -9999 -9999 -9999 -9999 -9999 -9999 -9999 -9999 -9999 -9999 -9999 -9999 -9999 -9999 -9999 -9999 -9999 -9999 -9999 -9999 -9999 -9999 -9999 -9999 -9999 -9999 -9999 -9999 -9999 -9999 -9999 -9999 -9999 -9999 -9999 -9999 -9999 -9999 -9999 -9999 -9999 -9999 -9999 -9999 -9999 -9999 -9999 -9999 -9999 -9999 -9999 -9999 -9999 -9999 -9999 -9999 -9999 -9999 -9999 -9999 -9999 -9999 552 531 421 385 341 322 342 417 401 353 284 271 265 243 233 212 189 185 171 163 153 63 64 66 62 50 21 18 16 11 8 16 -9 -7 -4 18 -6 1 9 -7 0 -25 1 -2 -1 -28 23 17 9 3 8 14 17 9 8 10 21 21 -26 4 21 25 51 14 20 27 22 5 -14 -7 -2 9 7 -1 15 14 25 20 25 34 22 34 26 10 15 35 28 31 31 29 25 30 31 26 24 20 21 5 24 24 26 21 25 30 27 43 21 21 17 24 44 26 -9999 -9999 -9999 -9999 -9999 -9999 -9999
-9999 -9999 -9999 -9999 -9999 -9999 -9999 -9999 -9999 -9999 -9999 -9999 -9999 -9999 -9999 -9999 -9999 -9999 -9999 -9999 -9999 -9999 -9999 -9999 -9999 -9999 -9999 -9999 -9999 -9999 -9999 -9999 -9999 -9999 -9999 -9999 -9999 -9999 -9999 -9999 -9999 -9999 -9999 -9999 -9999 -9999 -9999 -9999 -9999 -9999 -9999 -9999 -9999 -9999 -9999 -9999 -9999 -9999 -9999 -9999 -9999 -9999 -9999 -9999 -9999 -9999 -9999 -9999 -9999 -9999 -9999 -9999 -9999 -9999 -9999 -9999 -9999 -9999 -9999 -9999 -9999 -9999 -9999 -9999 -9999 -9999 -9999 626 529 494 342 344 325 322 427 375 337 298 268 280 264 246 223 194 199 202 184 180 95 90 80 63 74 46 30 6 0 -18 -23 -14 -3 -10 -3 0 23 9 0 -2 4 -12 17 13 14 36 26 1 10 4 10 11 20 20 20 18 21 28 43 28 15 25 13 -1 -9 14 23 29 24 36 13 10 15 18 63 21 34 27 28 26 20 19 16 36 37 31 30 23 30 39 32 31 27 33 33 26 31 24 23 33 24 22 14 30 40 26 32 33 26 46 45 -9999 -9999 -9999 -9999 -9999 -9999 -9999
-9999 -9999 -9999 -9999 -9999 -9999 -9999 -9999 -9999 -9999 -9999 -9999 -9999 -9999 -9999 -9999 -9999 -9999 -9999 -9999 -9999 -9999 -9999 -9999 -9999 -9999 -9999 -9999 -9999 -9999 -9999 -9999 -9999 -9999 -9999 -9999 -9999 -9999 -9999 -9999 -9999 -9999 -9999 -9999 -9999 -9999 -9999 -9999 -9999 -9999 -9999 -9999 -9999 -9999 -9999 -9999 -9999 -9999 -9999 -9999 -9999 -9999 -9999 -9999 -9999 -9999 -9999 -9999 -9999 -9999 -9999 -9999 -9999 -9999 -9999 -9999 -9999 -9999 -9999 -9999 -9999 -9999 -9999 -9999 -9999 -9999 -9999 457 627 512 331 339 333 331 379 384 333 301 271 269 263 257 227 229 214 231 238 175 120 111 82 50 45 36 13 -1 9 -1 -10 4 6 0 -1 30 13 16 11 7 0 -3 9 14 -2 29 23 13 9 12 10 6 8 18 14 19 17 23 67 17 16 36 -9999 25 3 0 0 0 7 -9 2 4 3 -5 6 15 17 20 13 21 14 17 21 22 32 30 35 29 37 36 37 34 29 31 29 25 25 28 23 28 30 26 45 24 34 24 24 23 29 44 34 -9999 -9999 -9999 -9999 -9999 -9999 -9999
-9999 -9999 -9999 -9999 -9999 -9999 -9999 -9999 -9999 -9999 -9999 -9999 -9999 -9999 -9999 -9999 -9999 -9999 -9999 -9999 -9999 -9999 -9999 -9999 -9999 -9999 -9999 -9999 -9999 -9999 -9999 -9999 -9999 -9999 -9999 -9999 -9999 -9999 -9999 -9999 -9999 -9999 -9999 -9999 -9999 -9999 -9999 -9999 -9999 -9999 -9999 -9999 -9999 -9999 -9999 -9999 -9999 -9999 -9999 -9999 -9999 -9999 -9999 -9999 -9999 -9999 -9999 -9999 -9999 -9999 -9999 -9999 -9999 -9999 -9999 -9999 -9999 -9999 -9999 -9999 -9999 -9999 -9999 -9999 -9999 -9999 -9999 526 555 440 360 323 328 322 326 365 328 300 287 271 266 260 250 239 220 285 213 178 113 110 84 65 53 33 2 10 30 23 7 -18 7 4 -4 23 36 18 -3 7 8 15 1 8 22 37 21 19 19 21 17 13 15 7 12 20 15 53 17 23 24 7 23 0 38 27 18 4 3 5 -7 0 1 15 9 18 11 17 12 22 15 12 15 20 25 35 31 26 33 37 35 28 31 33 29 26 28 33 27 23 22 25 53 28 35 34 28 40 43 42 45 -9999 -9999 -9999 -9999 -9999 -9999 -9999
-9999 -9999 -9999 -9999 -9999 -9999 -9999 -9999 -9999 -9999 -9999 -9999 -9999 -9999 -9999 -9999 -9999 -9999 -9999 -9999 -9999 -9999 -9999 -9999 -9999 -9999 -9999 -9999 -9999 -9999 -9999 -9999 -9999 -9999 -9999 -9999 -9999 -9999 -9999 -9999 -9999 -9999 -9999 -9999 -9999 -9999 -9999 -9999 -9999 -9999 -9999 -9999 -9999 -9999 -9999 -9999 -9999 -9999 -9999 -9999 -9999 -9999 -9999 -9999 -9999 -9999 -9999 -9999 -9999 -9999 -9999 -9999 -9999 -9999 -9999 -9999 -9999 -9999 -9999 -9999 -9999 -9999 -9999 -9999 -9999 -9999 576 548 482 423 411 329 326 323 349 346 322 298 289 288 278 275 268 259 201 218 192 186 165 119 111 88 57 53 38 21 17 -1 -12 13 14 18 33 28 0 28 16 3 0 11 22 19 28 26 20 3 10 3 15 11 16 15 14 24 53 41 18 25 24 -3 37 -8 28 30 35 29 23 36 20 0 5 16 -7 13 16 14 11 12 21 15 22 18 29 22 24 21 34 47 26 34 34 26 33 34 33 32 36 33 23 35 60 51 43 50 57 48 39 37 50 49 -9999 -9999 -9999 -9999 -9999 -9999
-9999 -9999 -9999 -9999 -9999 -9999 -9999 -9999 -9999 -9999 -9999 -9999 -9999 -9999 -9999 -9999 -9999 -9999 -9999 -9999 -9999 -9999 -9999 -9999 -9999 -9999 -9999 -9999 -9999 -9999 -9999 -9999 -9999 -9999 -9999 -9999 -9999 -9999 -9999 -9999 -9999 -9999 -9999 -9999 -9999 -9999 -9999 -9999 -9999 -9999 -9999 -9999 -9999 -9999 -9999 -9999 -9999 -9999 -9999 -9999 -9999 -9999 -9999 -9999 -9999 -9999 -9999 -9999 -9999 -9999 -9999 -9999 -9999 -9999 -9999 -9999 -9999 -9999 -9999 -9999 -9999 -9999 -9999 -9999 -9999 -9999 576 484 412 397 388 321 376 364 347 350 320 299 296 277 289 289 283 293 254 241 209 188 159 113 126 101 97 74 57 17 18 9 10 -11 15 40 14 2 11 1 23 19 7 12 14 22 -12 12 17 20 19 22 23 25 21 26 23 23 34 9 21 20 25 31 103 31 0 34 4 3 6 102 15 0 7 11 -3 21 12 15 16 17 25 15 15 25 29 25 24 20 29 39 22 25 34 28 33 33 31 42 35 46 34 59 55 43 37 32 43 36 50 38 43 48 -9999 -9999 -9999 -9999 -9999 -9999
-9999 -9999 -9999 -9999 -9999 -9999 -9999 -9999 -9999 -9999 -9999 -9999 -9999 -9999 -9999 -9999 -9999 -9999 -9999 -9999 -9999 -9999 -9999 -9999 -9999 -9999 -9999 -9999 -9999 -9999 -9999 -9999 -9999 -9999 -9999 -9999 -9999 -9999 -9999 -9999 -9999 -9999 -9999 -9999 -9999 -9999 -9999 -9999 -9999 -9999 -9999 -9999 -9999 -9999 -9999 -9999 -9999 -9999 -9999 -9999 -9999 -9999 -9999 -9999 -9999 -9999 -9999 -9999 -9999 -9999 -9999 -9999 -9999 -9999 -9999 -9999 -9999 -9999 -9999 -9999 -9999 -9999 -9999 -9999 -9999 574 505 448 405 379 371 370 364 359 343 334 331 312 311 293 302 293 316 279 264 255 220 199 170 167 147 135 124 94 62 47 32 43 32 30 39 9 1 5 14 7 18 15 15 18 18 7 -16 1 10 16 19 20 21 27 20 34 42 40 17 20 9 15 13 27 37 48 21 27 38 -8 8 4 0 3 6 10 -3 19 17 17 16 16 23 21 12 22 -3 29 20 23 26 27 17 30 36 34 31 33 43 55 64 46 49 27 30 39 34 32 34 42 42 36 40 63 -9999 -9999 -9999 -9999 -9999 -9999
-9999 -9999 -9999 -9999 -9999 -9999 -9999 -9999 -9999 -9999 -9999 -9999 -9999 -9999 -9999 -9999 -9999 -9999 -9999 -9999 -9999 -9999 -9999 -9999 -9999 -9999 -9999 -9999 -9999 -9999 -9999 -9999 -9999 -9999 -9999 -9999 -9999 -9999 -9999 -9999 -9999 -9999 -9999 -9999 -9999 -9999 -9999 -9999 -9999 -9999 -9999 -9999 -9999 -9999 -9999 -9999 -9999 -9999 -9999 -9999 -9999 -9999 -9999 -9999 -9999 -9999 -9999 -9999 -9999 -9999 -9999 -9999 -9999 -9999 -9999 -9999 -9999 -9999 -9999 -9999 -9999 -9999 -9999 -9999 -9999 -9999 468 442 378 381 380 364 359 357 338 339 335 324 317 303 300 307 298 282 275 253 231 213 192 170 165 145 131 106 86 54 39 46 44 28 8 4 1 -1 13 3 0 20 8 18 25 23 15 14 11 10 21 23 37 24 32 38 69 34 6 14 13 18 27 27 32 45 8 16 -4 10 25 18 4 2 -2 10 3 13 25 18 17 25 18 20 22 18 28 28 29 25 34 33 11 33 12 42 50 20 30 33 44 50 36 42 32 36 28 31 10 48 22 34 47 62 -9999 -9999 -9999 -9999 -9999 -9999
-9999 -9999 -9999 -9999 -9999 -9999 -9999 -9999 -9999 -9999 -9999 -9999 -9999 -9999 -9999 -9999 -9999 -9999 -9999 -9999 -9999 -9999 -9999 -9999 -9999 -9999 -9999 -9999 -9999 -9999 -9999 -9999 -9999 -9999 -9999 -9999 -9999 -9999 -9999 -9999 -9999 -9999 -9999 -9999 -9999 -9999 -9999 -9999 -9999 -9999 -9999 -9999 -9999 -9999 -9999 -9999 -9999 -9999 -9999 -9999 -9999 -9999 -9999 -9999 -9999 -9999 -9999 -9999 -9999 -9999 -9999 -9999 -9999 -9999 -9999 -9999 -9999 -9999 -9999 -9999 -9999 -9999 -9999 -9999 -9999 -9999 -9999 469 383 391 374 348 344 338 350 352 352 336 323 343 318 318 292 279 276 262 238 210 204 194 200 154 142 122 98 90 65 49 39 20 14 12 7 5 13 10 3 17 28 27 26 13 18 4 -2 8 24 1 48 44 43 57 20 9 9 15 16 16 29 27 21 86 15 7 18 14 20 29 35 19 8 14 18 3 14 19 23 21 21 23 15 21 29 25 26 29 36 37 17 32 6 37 13 13 20 26 45 41 47 37 44 46 43 39 40 43 49 33 34 72 -9999 -9999 -9999 -9999 -9999 -9999
-9999 -9999 -9999 -9999 -9999 -9999 -9999 -9999 -9999 -9999 -9999 -9999 -9999 -9999 -9999 -9999 -9999 -9999 -9999 -9999 -9999 -9999 -9999 -9999 -9999 -9999 -9999 -9999 -9999 -9999 -9999 -9999 -9999 -9999 -9999 -9999 -9999 -9999 -9999 -9999 -9999 -9999 -9999 -9999 -9999 -9999 -9999 -9999 -9999 -9999 -9999 -9999 -9999 -9999 -9999 -9999 -9999 -9999 -9999 -9999 -9999 -9999 -9999 -9999 -9999 -9999 -9999 -9999 -9999 -9999 -9999 -9999 -9999 -9999 -9999 -9999 -9999 -9999 -9999 -9999 -9999 -9999 -9999 -9999 -9999 -9999 -9999 417 402 389 372 319 347 354 353 355 352 325 342 330 325 320 310 286 278 265 259 235 212 202 191 173 163 117 121 82 87 61 32 19 21 17 10 9 11 4 12 7 10 33 28 21 10 5 3 -11 24 24 46 61 70 39 20 21 15 13 13 17 23 26 9 51 21 20 25 17 8 4 21 18 10 13 23 26 24 20 20 15 22 18 12 36 40 35 22 38 32 37 27 38 28 23 18 17 35 40 42 40 41 46 44 54 44 45 50 44 42 41 52 66 -9999 -9999 -9999 -9999 -9999 -9999
-9999 -9999 -9999 -9999 -9999 -9999 -9999 -9999 -9999 -9999 -9999 -9999 -9999 -9999 -9999 -9999 -9999 -9999 -9999 -9999 -9999 -9999 -9999 -9999 -9999 -9999 -9999 -9999 -9999 -9999 -9999 -9999 -9999 -9999 -9999 -9999 -9999 -9999 -9999 -9999 -9999 -9999 -9999 -9999 -9999 -9999 -9999 -9999 -9999 -9999 -9999 -9999 -9999 -9999 -9999 -9999 -9999 -9999 -9999 -9999 -9999 -9999 -9999 -9999 -9999 -9999 -9999 -9999 -9999 -9999 -9999 -9999 -9999 -9999 -9999 -9999 -9999 -9999 -9999 -9999 -9999 -9999 -9999 -9999 -9999 -9999 -9999 462 389 363 368 354 350 345 362 366 331 341 343 341 321 306 307 297 276 276 254 240 223 209 166 185 135 189 153 103 113 88 46 41 30 11 20 16 19 18 13 10 17 22 29 26 18 12 25 28 38 32 52 80 100 31 26 14 14 10 11 10 23 25 34 46 34 -9 22 13 21 33 -12 2 11 9 25 25 23 20 18 19 20 17 20 24 49 40 37 39 40 42 39 40 29 30 28 30 37 37 47 49 53 38 20 11 13 17 25 39 45 45 49 70 -9999 -9999 -9999 -9999 -9999 -9999
-9999 -9999 -9999 -9999 -9999 -9999 -9999 -9999 -9999 -9999 -9999 -9999 -9999 -9999 -9999 -9999 -9999 -9999 -9999 -9999 -9999 -9999 -9999 -9999 -9999 -9999 -9999 -9999 -9999 -9999 -9999 -9999 -9999 -9999 -9999 -9999 -9999 -9999 -9999 -9999 -9999 -9999 -9999 -9999 -9999 -9999 -9999 -9999 -9999 -9999 -9999 -9999 -9999 -9999 -9999 -9999 -9999 -9999 -9999 -9999 -9999 -9999 -9999 -9999 -9999 -9999 -9999 -9999 -9999 -9999 -9999 -9999 -9999 -9999 -9999 -9999 -9999 -9999 -9999 -9999 -9999 -9999 -9999 -9999 -9999 -9999 -9999 -9999 391 343 345 358 342 350 364 341 353 339 348 336 332 312 300 319 287 269 260 245 232 204 209 192 191 238 141 184 153 122 63 55 41 23 28 12 6 25 5 15 21 20 34 13 31 19 30 47 40 23 85 89 69 33 28 14 20 11 17 22 27 29 35 28 54 5 21 26 28 31 62 8 16 12 23 30 28 20 24 21 20 22 19 27 34 49 35 32 32 37 37 36 47 47 36 43 44 37 50 43 34 35 27 16 25 28 34 38 40 35 52 31 -9999 -9999 -9999 -9999 -9999 -9999
-9999 -9999 -9999 -9999 -9999 -9999 -9999 -9999 -9999 -9999 -9999 -9999 -9999 -9999 -9999 -9999 -9999 -9999 -9999 -9999 -9999 -9999 -9999 -9999 -9999 -9999 -9999 -9999 -9999 -9999 -9999 -9999 -9999 -9999 -9999 -9999 -9999 -9999 -9999 -9999 -9999 -9999 -9999 -9999 -9999 -9999 -9999 -9999 -9999 -9999 -9999 -9999 -9999 -9999 -9999 -9999 -9999 -9999 -9999 -9999 -9999 -9999 -9999 -9999 -9999 -9999 -9999 -9999 -9999 -9999 -9999 -9999 -9999 -9999 -9999 -9999 -9999 -9999 -9999 -9999 -9999 -9999 -9999 -9999 -9999 -9999 -9999 -9999 364 346 342 343 337 378 348 361 366 352 347 342 331 322 312 306 285 283 260 249 256 207 233 224 203 198 207 220 169 141 93 66 49 35 26 13 26 10 21 1 20 36 10 15 14 29 28 57 34 32 73 93 54 21 6 3 7 7 10 17 23 28 9 18 18 76 27 50 43 56 40 24 18 20 28 27 21 25 20 24 18 14 18 18 38 55 37 42 43 36 45 41 42 48 36 36 43 40 48 50 48 40 37 46 34 29 36 54 -10 42 22 34 -9999 -9999 -9999 -9999 -9999 -9999
-9999 -9999 -9999 -9999 -9999 -9999 -9999 -9999 -9999 -9999 -9999 -9999 -9999 -9999 -9999 -9999 -9999 -9999 -9999 -9999 -9999 -9999 -9999 -9999 -9999 -9999 -9999 -9999 -9999 -9999 -9999 -9999 -9999 -9999 -9999 -9999 -9999 -9999 -9999 -9999 -9999 -9999 -9999 -9999 -9999 -9999 -9999 -9999 -9999 -9999 -9999 -9999 -9999 -9999 -9999 -9999 -9999 -9999 -9999 -9999 -9999 -9999 -9999 -9999 -9999 -9999 -9999 -9999 -9999 -9999 -9999 -9999 -9999 -9999 -9999 -9999 -9999 -9999 -9999 -9999 -9999 -9999 -9999 -9999 -9999 -9999 -9999 -9999 375 363 331 334 353 365 361 366 373 359 346 343 349 330 307 306 309 298 286 282 252 252 247 247 242 225 213 225 209 153 129 84 64 44 36 22 13 22 12 30 30 17 14 25 16 46 49 49 67 70 118 72 34 19 21 19 10 12 12 7 23 3 32 46 24 48 20 7 26 -16 43 14 21 19 28 28 25 28 15 31 15 22 20 17 34 14 42 30 26 35 38 20 40 51 40 38 30 38 38 41 41 16 30 34 3 34 42 45 43 22 9 13 52 -9999 -9999 -9999 -9999 -9999
-9999 -9999 -9999 -9999 -9999 -9999 -9999 -9999 -9999 -9999 -9999 -9999 -9999 -9999 -9999 -9999 -9999 -9999 -9999 -9999 -9999 -9999 -9999 -9999 -9999 -9999 -9999 -9999 -9999 -9999 -9999 -9999 -9999 -9999 -9999 -9999 -9999 -9999 -9999 -9999 -9999 -9999 -9999 -9999 -9999 -9999 -9999 -9999 -9999 -9999 -9999 -9999 -9999 -9999 -9999 -9999 -9999 -9999 -9999 -9999 -9999 -9999 -9999 -9999 -9999 -9999 -9999 -9999 -9999 -9999 -9999 -9999 -9999 -9999 -9999 -9999 -9999 -9999 -9999 -9999 -9999 -9999 -9999 -9999 -9999 -9999 -9999 -9999 -9999 385 365 355 366 362 360 357 359 358 311 338 338 335 330 315 311 289 306 269 271 254 262 256 252 243 234 237 225 153 129 107 90 51 25 30 24 21 40 28 13 27 25 3 27 42 54 66 54 97 69 25 19 24 8 9 9 12 11 12 10 18 24 19 31 -2 3 6 15 28 20 25 19 20 25 24 22 25 25 -1 16 23 18 20 23 30 26 21 19 26 23 4 35 16 36 38 26 47 50 61 60 47 42 67 26 32 45 51 46 47 37 38 55 -9999 -9999 -9999 -9999 -9999
-9999 -9999 -9999 -9999 -9999 -9999 -9999 -9999 -9999 -9999 -9999 -9999 -9999 -9999 -9999 -9999 -9999 -9999 -9999 -9999 -9999 -9999 -9999 -9999 -9999 -9999 -9999 -9999 -9999 -9999 -9999 -9999 -9999 -9999 -9999 -9999 -9999 -9999 -9999 -9999 -9999 -9999 -9999 -9999 -9999 -9999 -9999 -9999 -9999 -9999 -9999 -9999 -9999 -9999 -9999 -9999 -9999 -9999 -9999 -9999 -9999 -9999 -9999 -9999 -9999 -9999 -9999 -9999 -9999 -9999 -9999 -9999 -9999 -9999 -9999 -9999 -9999 -9999 -9999 -9999 -9999 -9999 -9999 -9999 -9999 -9999 -9999 -9999 -9999 360 359 374 364 370 363 356 360 351 345 338 336 335 321 318 332 321 297 299 285 284 275 258 245 244 260 267 235 193 92 105 89 68 32 45 36 37 41 33 41 23 38 34 27 50 44 54 79 91 36 12 13 5 15 11 10 12 7 15 23 11 35 14 -10 -5 29 10 50 36 77 45 21 18 19 26 23 -9 22 26 16 30 26 22 23 32 28 37 28 31 36 11 38 20 37 37 25 51 41 45 65 50 54 47 41 42 52 47 46 38 31 29 42 -9999 -9999 -9999 -9999 -9999
-9999 -9999 -9999 -9999 -9999 -9999 -9999 -9999 -9999 -9999 -9999 -9999 -9999 -9999 -9999 -9999 -9999 -9999 -9999 -9999 -9999 -9999 -9999 -9999 -9999 -9999 -9999 -9999 -9999 -9999 -9999 -9999 -9999 -9999 -9999 -9999 -9999 -9999 -9999 -9999 -9999 -9999 -9999 -9999 -9999 -9999 -9999 -9999 -9999 -9999 -9999 -9999 -9999 -9999 -9999 -9999 -9999 -9999 -9999 -9999 -9999 -9999 -9999 -9999 -9999 -9999 -9999 -9999 -9999 -9999 -9999 -9999 -9999 -9999 -9999 -9999 -9999 -9999 -9999 -9999 -9999 -9999 -9999 -9999 -9999 -9999 -9999 -9999 343 347 350 363 354 359 352 349 354 347 356 349 338 335 326 358 318 312 297 287 295 283 254 262 242 242 235 260 250 161 136 94 74 69 39 37 45 31 46 53 40 24 49 51 63 62 62 68 116 66 30 26 11 25 17 13 11 10 11 17 14 7 23 -2 -34 -7 16 -5 22 40 38 20 20 22 21 26 18 19 22 24 18 24 30 27 29 33 37 39 38 29 31 29 34 43 47 52 58 49 64 37 -4 62 62 61 57 55 36 55 55 50 50 49 50 70 -9999 -9999 -9999 -9999
-9999 -9999 -9999 -9999 -9999 -9999 -9999 -9999 -9999 -9999 -9999 -9999 -9999 -9999 -9999 -9999 -9999 -9999 -9999 -9999 -9999 -9999 -9999 -9999 -9999 -9999 -9999 -9999 -9999 -9999 -9999 -9999 -9999 -9999 -9999 -9999 -9999 -9999 -9999 -9999 -9999 -9999 -9999 -9999 -9999 -9999 -9999 -9999 -9999 -9999 -9999 -9999 -9999 -9999 -9999 -9999 -9999 -9999 -9999 -9999 -9999 -9999 -9999 -9999 -9999 -9999 -9999 -9999 -9999 -9999 -9999 -9999 -9999 -9999 -9999 -9999 -9999 -9999 -9999 -9999 -9999 -9999 -9999 -9999 -9999 -9999 -9999 353 364 338 356 356 371 337 333 333 317 359 347 351 336 348 339 340 335 335 310 309 298 283 279 261 258 258 256 249 225 210 142 102 81 53 58 75 39 69 86 72 49 44 51 64 64 66 88 105 99 46 21 -2 5 11 9 3 17 7 18 21 18 -2 14 -7 20 -15 49 94 37 58 38 34 24 15 28 21 17 20 25 31 21 25 29 20 29 26 28 25 22 22 20 29 40 45 52 34 41 51 9 41 40 43 50 50 49 53 55 58 54 58 50 51 52 64 -9999 -9999 -9999 -9999
-9999 -9999 -9999 -9999 -9999 -9999 -9999 -9999 -9999 -9999 -9999 -9999 -9999 -9999 -9999 -9999 -9999 -9999 -9999 -9999 -9999 -9999 -9999 -9999 -9999 -9999 -9999 -9999 -9999 -9999 -9999 -9999 -9999 -9999 -9999 -9999 -9999 -9999 -9999 -9999 -9999 -9999 -9999 -9999 -9999 -9999 -9999 -9999 -9999 -9999 -9999 -9999 -9999 -9999 -9999 -9999 -9999 -9999 -9999 -9999 -9999 -9999 -9999 -9999 -9999 -9999 -9999 -9999 -9999 -9999 -9999 -9999 -9999 -9999 -9999 -9999 -9999 -9999 -9999 -9999 -9999 -9999 -9999 -9999 -9999 -9999 -9999 360 359 354 365 336 379 334 302 327 345 348 351 343 360 333 323 338 322 318 308 308 301 297 296 294 283 267 261 254 314 214 164 107 80 77 63 72 80 76 81 118 94 79 74 53 62 88 121 104 64 26 21 1 3 4 14 21 16 11 11 17 25 40 33 2 -1 7 31 39 44 60 57 46 18 20 25 29 23 24 29 30 26 21 27 21 24 32 39 40 44 27 50 30 37 38 23 42 46 49 51 53 50 53 59 53 55 62 74 69 62 77 50 48 60 75 64 59 88 108
-9999 -9999 -9999 -9999 -9999 -9999 -9999 -9999 -9999 -9999 -9999 -9999 -9999 -9999 -9999 -9999 -9999 -9999 -9999 -9999 -9999 -9999 -9999 -9999 -9999 -9999 -9999 -9999 -9999 -9999 -9999 -9999 -9999 -9999 -9999 -9999 -9999 -9999 -9999 -9999 -9999 -9999 -9999 -9999 -9999 -9999 -9999 -9999 -9999 -9999 -9999 -9999 -9999 -9999 -9999 -9999 -9999 -9999 -9999 -9999 -9999 -9999 -9999 -9999 -9999 -9999 -9999 -9999 -9999 -9999 -9999 -9999 -9999 -9999 -9999 -9999 -9999 -9999 -9999 -9999 -9999 -9999 -9999 -9999 -9999 -9999 368 363 355 345 349 333 342 348 339 352 354 351 356 349 342 345 338 330 343 337 320 310 303 294 312 290 283 288 261 264 247 210 148 102 91 73 73 99 91 82 102 104 97 91 86 66 75 100 98 30 -5 8 5 16 13 12 5 16 18 12 16 18 25 2 12 10 -6 -8 33 41 51 42 41 30 17 23 21 27 28 24 30 28 27 21 43 18 45 26 50 36 29 36 37 38 42 56 41 47 43 33 42 41 49 48 48 33 51 54 51 64 60 51 1 65 58 63 82 59 87 88
-9999 -9999 -9999 -9999 -9999 -9999 -9999 -9999 -9999 -9999 -9999 -9999 -9999 -9999 -9999 -9999 -9999 -9999 -9999 -9999 -9999 -9999 -9999 -9999 -9999 -9999 -9999 -9999 -9999 -9999 -9999 -9999 -9999 -9999 -9999 -9999 -9999 -9999 -9999 -9999 -9999 -9999 -9999 -9999 -9999 -9999 -9999 -9999 -9999 -9999 -9999 -9999 -9999 -9999 -9999 -9999 -9999 -9999 -9999 -9999 -9999 -9999 -9999 -9999 -9999 -9999 -9999 -9999 -9999 -9999 -9999 -9999 -9999 -9999 -9999 -9999 -9999 -9999 -9999 -9999 -9999 -9999 -9999 -9999 -9999 -9999 417 393 359 329 329 339 338 353 351 354 355 364 347 349 340 332 321 330 320 333 322 318 308 306 308 289 297 286 276 262 260 223 148 110 112 97 81 74 100 117 108 84 87 85 76 77 92 94 46 17 3 6 0 5 4 2 10 21 21 10 -2 21 21 30 8 31 14 18 27 17 26 21 30 36 18 18 25 28 23 20 33 36 28 50 31 41 33 31 27 42 39 41 44 44 48 62 39 40 43 40 41 47 46 48 56 46 43 50 51 58 59 51 57 56 56 68 56 58 69 88
-9999 -9999 -9999 -9999 -9999 -9999 -9999 -9999 -9999 -9999 -9999 -9999 -9999 -9999 -9999 -9999 -9999 -9999 -9999 -9999 -9999 -9999 -9999 -9999 -9999 -9999 -9999 -9999 -9999 -9999 -9999 -9999 -9999 -9999 -9999 -9999 -9999 -9999 -9999 -9999 -9999 -9999 -9999 -9999 -9999 -9999 -9999 -9999 -9999 -9999 -9999 -9999 -9999 -9999 -9999 -9999 -9999 -9999 -9999 -9999 -9999 -9999 -9999 -9999 -9999 -9999 -9999 -9999 -9999 -9999 -9999 -9999 -9999 -9999 -9999 -9999 -9999 -9999 -9999 -9999 -9999 -9999 -9999 -9999 -9999 436 448 411 387 332 325 320 350 349 370 349 386 358 331 337 335 332 342 308 340 335 317 322 303 305 296 297 296 347 292 246 226 199 165 150 142 95 95 92 106 114 108 83 91 73 71 77 39 38 12 17 24 0 -5 0 12 9 3 20 12 13 16 24 18 27 30 44 27 20 28 41 -6 27 29 17 16 14 21 37 7 19 30 24 21 34 39 42 46 25 38 45 42 41 45 44 48 46 45 50 41 18 42 45 43 33 40 44 46 51 55 47 53 61 60 55 64 66 76 70 92 -9999
-9999 -9999 -9999 -9999 -9999 -9999 -9999 -9999 -9999 -9999 -9999 -9999 -9999 -9999 -9999 -9999 -9999 -9999 -9999 -9999 -9999 -9999 -9999 -9999 -9999 -9999 -9999 -9999 -9999 -9999 -9999 -9999 -9999 -9999 -9999 -9999 -9999 -9999 -9999 -9999 -9999 -9999 -9999 -9999 -9999 -9999 -9999 -9999 -9999 -9999 -9999 -9999 -9999 -9999 -9999 -9999 -9999 -9999 -9999 -9999 -9999 -9999 -9999 -9999 -9999 -9999 -9999 -9999 -9999 -9999 -9999 -9999 -9999 -9999 -9999 -9999 -9999 -9999 -9999 -9999 -9999 -9999 -9999 -9999 450 424 425 375 358 329 325 340 354 349 349 351 330 363 351 332 338 332 319 327 318 325 333 326 326 306 305 303 297 294 263 306 240 211 181 186 169 143 114 112 109 126 133 97 96 41 75 52 19 17 15 11 1 0 0 0 14 20 11 30 17 5 19 22 27 24 13 19 14 23 29 38 48 18 38 59 15 19 23 20 24 30 36 28 28 10 22 35 34 59 51 41 38 45 43 48 46 45 40 47 37 41 46 49 39 37 41 35 37 45 54 60 59 52 53 59 63 75 69 75 -9999 -9999
-9999 -9999 -9999 -9999 -9999 -9999 -9999 -9999 -9999 -9999 -9999 -9999 -9999 -9999 -9999 -9999 -9999 -9999 -9999 -9999 -9999 -9999 -9999 -9999 -9999 -9999 -9999 -9999 -9999 -9999 -9999 -9999 -9999 -9999 -9999 -9999 -9999 -9999 -9999 -9999 -9999 -9999 -9999 -9999 -9999 -9999 -9999 -9999 -9999 -9999 -9999 -9999 -9999 -9999 -9999 -9999 -9999 -9999 -9999 -9999 -9999 -9999 -9999 -9999 -9999 -9999 -9999 -9999 -9999 -9999 -9999 -9999 -9999 -9999 -9999 -9999 -9999 -9999 -9999 -9999 -9999 -9999 -9999 -9999 374 420 416 397 407 336 320 327 345 366 343 359 352 356 435 330 336 343 340 330 316 313 316 344 335 311 307 312 146 307 297 326 250 218 173 191 218 159 139 143 135 148 144 133 100 87 61 39 10 3 2 7 8 7 -4 -4 -2 24 25 20 10 15 17 15 26 26 26 28 38 28 20 22 23 34 34 35 17 26 23 23 27 34 30 33 32 41 38 43 40 47 26 47 57 49 49 51 59 43 46 48 45 40 47 46 42 35 40 44 43 43 38 45 65 61 62 58 72 81 89 103 -9999 -9999
-9999 -9999 -9999 -9999 -9999 -9999 -9999 -9999 -9999 -9999 -9999 -9999 -9999 -9999 -9999 -9999 -9999 -9999 -9999 -9999 -9999 -9999 -9999 -9999 -9999 -9999 -9999 -9999 -9999 -9999 -9999 -9999 -9999 -9999 -9999 -9999 -9999 -9999 -9999 -9999 -9999 -9999 -9999 -9999 -9999 -9999 -9999 -9999 -9999 -9999 -9999 -9999 -9999 -9999 -9999 -9999 -9999 -9999 -9999 -9999 -9999 -9999 -9999 -9999 -9999 -9999 -9999 -9999 -9999 -9999 -9999 -9999 -9999 -9999 -9999 -9999 -9999 -9999 -9999 -9999 -9999 -9999 -9999 -9999 -9999 392 398 367 357 352 310 313 328 339 341 337 341 349 325 336 334 341 325 326 318 332 320 370 355 336 339 353 366 333 307 313 264 210 184 205 200 194 179 159 166 166 153 127 117 84 60 28 6 14 5 3 5 5 2 3 6 23 19 16 11 15 20 28 17 30 30 45 41 36 38 31 44 37 53 20 20 28 27 31 28 31 20 34 51 49 38 34 43 38 42 38 47 57 -7 61 51 49 48 48 29 43 48 44 46 49 51 46 50 53 54 48 64 59 64 66 69 87 94 103 -9999 -9999
-9999 -9999 -9999 -9999 -9999 -9999 -9999 -9999 -9999 -9999 -9999 -9999 -9999 -9999 -9999 -9999 -9999 -9999 -9999 -9999 -9999 -9999 -9999 -9999 -9999 -9999 -9999 -9999 -9999 -9999 -9999 -9999 -9999 -9999 -9999 -9999 -9999 -9999 -9999 -9999 -9999 -9999 -9999 -9999 -9999 -9999 -9999 -9999 -9999 -9999 -9999 -9999 -9999 -9999 -9999 -9999 -9999 -9999 -9999 -9999 -9999 -9999 -9999 -9999 -9999 -9999 -9999 -9999 -9999 -9999 -9999 -9999 -9999 -9999 -9999 -9999 -9999 -9999 -9999 -9999 -9999 -9999 -9999 -9999 -9999 -9999 360 357 365 361 332 312 320 327 325 332 329 335 330 321 345 335 343 337 368 365 373 381 379 347 345 395 352 326 276 236 198 162 180 182 255 206 224 206 196 171 152 157 115 82 49 32 5 -3 -7 7 3 0 0 -8 9 -16 18 10 0 14 -3 22 12 23 36 41 46 36 34 28 37 28 79 49 35 23 30 33 33 32 27 36 34 46 38 55 46 44 41 47 46 49 52 58 55 52 56 49 46 54 51 39 41 49 51 54 52 59 51 55 49 79 67 63 71 77 80 -9999 -9999 -9999
-9999 -9999 -9999 -9999 -9999 -9999 -9999 -9999 -9999 -9999 -9999 -9999 -9999 -9999 -9999 -9999 -9999 -9999 -9999 -9999 -9999 -9999 -9999 -9999 -9999 -9999 -9999 -9999 -9999 -9999 -9999 -9999 -9999 -9999 -9999 -9999 -9999 -9999 -9999 -9999 -9999 -9999 -9999 -9999 -9999 -9999 -9999 -9999 -9999 -9999 -9999 -9999 -9999 -9999 -9999 -9999 -9999 -9999 -9999 -9999 -9999 -9999 -9999 -9999 -9999 -9999 -9999 -9999 -9999 -9999 -9999 -9999 -9999 -9999 -9999 -9999 -9999 -9999 -9999 -9999 -9999 -9999 -9999 -9999 -9999 -9999 -9999 367 365 355 344 295 310 306 313 329 321 334 348 328 325 338 328 346 357 428 395 420 370 291 311 302 351 285 210 160 162 144 149 191 182 184 196 229 217 151 139 125 100 75 56 37 22 15 11 5 8 -1 16 3 2 8 19 11 20 10 25 22 27 24 41 47 35 43 46 42 35 33 73 48 55 25 30 43 37 31 27 31 24 48 48 73 61 60 59 60 55 56 50 43 51 54 51 57 63 62 63 58 60 57 60 55 53 34 53 82 56 72 64 68 74 86 87 -9999 -9999 -9999
-9999 -9999 -9999 -9999 -9999 -9999 -9999 -9999 -9999 -9999 -9999 -9999 -9999 -9999 -9999 -9999 -9999 -9999 -9999 -9999 -9999 -9999 -9999 -9999 -9999 -9999 -9999 -9999 -9999 -9999 -9999 -9999 -9999 -9999 -9999 -9999 -9999 -9999 -9999 -9999 -9999 -9999 -9999 -9999 -9999 -9999 -9999 -9999 -9999 -9999 -9999 -9999 -9999 -9999 -9999 -9999 -9999 -9999 -9999 -9999 -9999 -9999 -9999 -9999 -9999 -9999 -9999 -9999 -9999 -9999 -9999 -9999 -9999 -9999 -9999 -9999 -9999 -9999 -9999 -9999 -9999 -9999 -9999 -9999 -9999 -9999 -9999 -9999 357 359 331 352 306 323 294 306 315 332 347 333 336 347 339 348 350 344 370 306 279 241 207 222 206 162 167 168 162 152 166 160 170 182 196 207 150 138 137 125 163 88 59 47 18 18 22 9 9 1 1 4 9 8 6 22 0 17 17 16 29 30 43 31 45 32 36 47 59 58 12 53 58 37 32 34 30 30 38 27 31 -5 48 66 42 37 29 57 51 56 66 58 61 66 57 63 65 68 69 61 49 57 71 60 65 73 70 70 69 72 74 70 81 98 92 -9999 -9999 -9999
-9999 -9999 -9999 -9999 -9999 -9999 -9999 -9999 -9999 -9999 -9999 -9999 -9999 -9999 -9999 -9999 -9999 -9999 -9999 -9999 -9999 -9999 -9999 -9999 -9999 -9999 -9999 -9999 -9999 -9999 -9999 -9999 -9999 -9999 -9999 -9999 -9999 -9999 -9999 -9999 -9999 -9999 -9999 -9999 -9999 -9999 -9999 -9999 -9999 -9999 -9999 -9999 -9999 -9999 -9999 -9999 -9999 -9999 -9999 -9999 -9999 -9999 -9999 -9999 -9999 -9999 -9999 -9999 -9999 -9999 -9999 -9999 -9999 -9999 -9999 -9999 -9999 -9999 -9999 -9999 -9999 -9999 -9999 -9999 -9999 -9999 -9999 -9999 -9999 351 346 310 299 316 297 285 313 338 323 332 326 321 279 231 204 204 201 182 150 128 132 136 141 145 152 152 154 145 154 154 173 171 188 195 151 140 143 137 123 100 62 48 45 23 11 9 4 0 16 4 -4 3 11 0 15 34 14 19 31 23 33 30 49 30 52 43 44 44 25 45 55 32 28 37 27 31 26 24 40 22 47 39 41 36 56 55 56 60 66 56 66 67 64 50 66 62 60 61 59 62 45 41 60 65 78 79 74 75 70 69 86 75 -9999 -9999 -9999 -9999
-9999 -9999 -9999 -9999 -9999 -9999 -9999 -9999 -9999 -9999 -9999 -9999 -9999 -9999 -9999 -9999 -9999 -9999 -9999 -9999 -9999 -9999 -9999 -9999 -9999 -9999 -9999 -9999 -9999 -9999 -9999 -9999 -9999 -9999 -9999 -9999 -9999 -9999 -9999 -9999 -9999 -9999 -9999 -9999 -9999 -9999 -9999 -9999 -9999 -9999 -9999 -9999 -9999 -9999 -9999 -9999 -9999 -9999 -9999 -9999 -9999 -9999 -9999 -9999 -9999 -9999 -9999 -9999 -9999 -9999 -9999 -9999 -9999 -9999 -9999 -9999 -9999 -9999 -9999 -9999 -9999 -9999 -9999 -9999 -9999 -9999 -9999 -9999 -9999 -9999 304 304 310 332 336 298 313 358 341 320 304 289 140 124 117 123 105 119 108 119 120 121 124 118 135 138 138 137 156 150 151 172 171 200 164 145 137 129 123 121 89 46 20 40 38 22 -9 9 15 8 14 -5 19 22 28 24 29 35 47 44 30 34 0 29 34 47 42 57 41 39 44 25 33 44 17 32 29 22 50 28 25 37 43 34 57 51 49 60 60 71 67 71 65 74 79 69 79 84 98 79 94 79 74 83 -9999 -9999 66 61 78 69 108 -9999 -9999 -9999 -9999 -9999
